ncols 486
nrows 29
xllcorner 6054.4255
yllcorner 9637.9569
cellsize 30
NODATA_value -9999
959.00 954.00 949.00 943.00 938.00 934.00 931.00 927.00 926.00 928.00 931.00 932.00 933.00 933.00 933.00 932.00 931.00 930.00 928.00 927.00 924.00 921.00 916.00 911.00 906.00 901.00 896.00 892.00 889.00 886.00 882.00 878.00 874.00 872.00 871.00 872.00 875.00 879.00 884.00 888.00 892.00 895.00 897.00 898.00 899.00 899.00 899.00 900.00 900.00 899.00 898.00 895.00 891.00 886.00 880.00 872.00 864.00 856.00 847.00 840.00 833.00 829.00 826.00 824.00 823.00 822.00 822.00 821.00 822.00 822.00 823.00 825.00 826.00 828.00 829.00 830.00 830.00 829.00 828.00 827.00 827.00 827.00 827.00 827.00 828.00 830.00 831.00 832.00 833.00 834.00 834.00 834.00 833.00 833.00 833.00 834.00 836.00 836.00 835.00 835.00 834.00 835.00 835.00 836.00 836.00 835.00 835.00 837.00 837.00 835.00 831.00 828.00 827.00 827.00 828.00 828.00 828.00 828.00 827.00 825.00 822.00 820.00 816.00 812.00 808.00 803.00 798.00 794.00 791.00 791.00 792.00 794.00 798.00 803.00 809.00 816.00 824.00 830.00 835.00 837.00 838.00 836.00 833.00 829.00 825.00 821.00 817.00 813.00 811.00 809.00 807.00 805.00 803.00 801.00 799.00 796.00 793.00 791.00 790.00 790.00 790.00 791.00 791.00 790.00 789.00 787.00 786.00 784.00 782.00 780.00 779.00 777.00 776.00 774.00 772.00 770.00 768.00 766.00 763.00 758.00 752.00 744.00 735.00 726.00 718.00 713.00 709.00 706.00 703.00 701.00 699.00 697.00 696.00 695.00 694.00 692.00 690.00 687.00 684.00 679.00 674.00 667.00 659.00 649.00 639.00 630.00 622.00 616.00 610.00 604.00 597.00 589.00 580.00 572.00 563.00 555.00 546.00 537.00 528.00 519.00 512.00 508.00 506.00 506.00 509.00 512.00 515.00 519.00 523.00 528.00 534.00 540.00 548.00 556.00 566.00 576.00 587.00 598.00 608.00 617.00 624.00 629.00 632.00 633.00 632.00 631.00 627.00 623.00 618.00 612.00 606.00 601.00 595.00 591.00 587.00 583.00 580.00 576.00 572.00 568.00 563.00 557.00 552.00 547.00 543.00 539.00 535.00 530.00 527.00 524.00 523.00 524.00 529.00 536.00 545.00 555.00 566.00 575.00 582.00 586.00 588.00 588.00 587.00 584.00 580.00 576.00 574.00 572.00 571.00 572.00 574.00 575.00 573.00 571.00 567.00 563.00 560.00 558.00 558.00 560.00 565.00 571.00 577.00 580.00 582.00 580.00 576.00 569.00 562.00 555.00 549.00 544.00 540.00 536.00 533.00 529.00 526.00 522.00 519.00 516.00 513.00 510.00 508.00 507.00 507.00 507.00 509.00 511.00 510.00 505.00 500.00 492.00 485.00 479.00 472.00 464.00 456.00 446.00 435.00 422.00 409.00 399.00 390.00 384.00 379.00 376.00 373.00 370.00 368.00 365.00 363.00 362.00 360.00 359.00 357.00 356.00 354.00 353.00 352.00 350.00 349.00 348.00 346.00 345.00 343.00 342.00 341.00 341.00 342.00 341.00 339.00 338.00 339.00 338.00 336.00 333.00 330.00 326.00 321.00 315.00 308.00 299.00 293.00 288.00 285.00 283.00 279.00 272.00 260.00 243.00 227.00 215.00 205.00 194.00 184.00 174.00 164.00 155.00 148.00 140.00 134.00 130.00 126.00 123.00 120.00 117.00 115.00 113.00 109.00 104.00 99.00 93.00 87.00 79.00 72.00 65.00 60.00 55.00 48.00 41.00 33.00 26.00 18.00 11.00 5.00 2.00 0.00 0.00 0.00 0.00 0.00 0.00 0.00 0.00 0.00 0.00 0.00 0.00 0.00 0.00 0.00 0.00 0.00 0.00 0.00 0.00 0.00 0.00 0.00 0.00 0.00 0.00 0.00 0.00 0.00 0.00 0.00 0.00 0.00 0.00 0.00 0.00 0.00 0.00 0.00 0.00 0.00 0.00 0.00 0.00 0.00 0.00 0.00 0.00 0.00 0.00 0.00 0.00 0.00 0.00 0.00 0.00 0.00 0.00 0.00 0.00
956.00 951.00 945.00 939.00 934.00 929.00 925.00 921.00 922.00 924.00 926.00 927.00 927.00 927.00 926.00 925.00 923.00 921.00 919.00 917.00 915.00 911.00 907.00 901.00 896.00 892.00 887.00 884.00 881.00 877.00 874.00 870.00 866.00 864.00 864.00 865.00 868.00 872.00 876.00 880.00 883.00 886.00 888.00 889.00 890.00 891.00 892.00 892.00 893.00 893.00 891.00 889.00 885.00 879.00 873.00 866.00 858.00 851.00 843.00 837.00 831.00 826.00 822.00 819.00 817.00 816.00 814.00 813.00 813.00 813.00 814.00 815.00 816.00 818.00 819.00 820.00 821.00 822.00 822.00 822.00 822.00 822.00 822.00 823.00 823.00 824.00 826.00 827.00 828.00 829.00 830.00 830.00 829.00 828.00 828.00 828.00 830.00 832.00 834.00 835.00 834.00 834.00 835.00 835.00 836.00 836.00 836.00 837.00 835.00 831.00 826.00 823.00 822.00 822.00 823.00 823.00 824.00 825.00 825.00 824.00 823.00 821.00 817.00 813.00 808.00 802.00 796.00 791.00 788.00 787.00 788.00 790.00 794.00 798.00 803.00 810.00 817.00 824.00 830.00 833.00 835.00 835.00 832.00 828.00 824.00 819.00 815.00 811.00 808.00 805.00 803.00 802.00 800.00 797.00 795.00 792.00 789.00 787.00 785.00 785.00 786.00 786.00 786.00 786.00 785.00 783.00 781.00 779.00 778.00 777.00 776.00 774.00 773.00 771.00 769.00 767.00 766.00 763.00 759.00 754.00 748.00 740.00 732.00 724.00 717.00 711.00 707.00 703.00 700.00 696.00 693.00 690.00 687.00 685.00 683.00 681.00 679.00 677.00 675.00 672.00 667.00 661.00 654.00 645.00 636.00 628.00 620.00 614.00 607.00 600.00 592.00 584.00 576.00 567.00 558.00 550.00 541.00 532.00 524.00 517.00 512.00 510.00 511.00 514.00 519.00 523.00 527.00 531.00 535.00 539.00 543.00 548.00 555.00 563.00 573.00 583.00 594.00 605.00 616.00 625.00 633.00 638.00 642.00 643.00 642.00 639.00 636.00 631.00 626.00 621.00 615.00 610.00 604.00 600.00 596.00 593.00 590.00 587.00 584.00 579.00 574.00 568.00 564.00 559.00 555.00 552.00 548.00 544.00 540.00 536.00 535.00 535.00 539.00 546.00 555.00 566.00 577.00 586.00 593.00 598.00 601.00 603.00 602.00 599.00 596.00 592.00 588.00 585.00 585.00 586.00 587.00 586.00 585.00 583.00 580.00 577.00 573.00 571.00 571.00 574.00 579.00 584.00 589.00 592.00 592.00 589.00 583.00 576.00 568.00 561.00 555.00 551.00 546.00 542.00 538.00 534.00 531.00 527.00 524.00 520.00 518.00 516.00 514.00 513.00 513.00 513.00 515.00 517.00 515.00 511.00 505.00 496.00 487.00 479.00 470.00 461.00 452.00 442.00 431.00 419.00 408.00 398.00 390.00 384.00 379.00 375.00 372.00 369.00 367.00 364.00 362.00 361.00 360.00 359.00 359.00 358.00 357.00 356.00 355.00 353.00 352.00 351.00 351.00 350.00 349.00 348.00 348.00 348.00 348.00 346.00 343.00 340.00 338.00 335.00 331.00 326.00 321.00 315.00 310.00 303.00 295.00 287.00 280.00 273.00 267.00 268.00 267.00 259.00 241.00 219.00 203.00 193.00 184.00 175.00 167.00 159.00 152.00 145.00 138.00 132.00 127.00 124.00 122.00 120.00 118.00 117.00 116.00 115.00 112.00 107.00 102.00 95.00 87.00 77.00 66.00 57.00 50.00 43.00 36.00 30.00 24.00 18.00 13.00 8.00 3.00 0.00 0.00 0.00 0.00 0.00 0.00 0.00 0.00 0.00 0.00 0.00 0.00 0.00 0.00 0.00 0.00 0.00 0.00 0.00 0.00 0.00 0.00 0.00 0.00 0.00 0.00 0.00 0.00 0.00 0.00 0.00 0.00 0.00 0.00 0.00 0.00 0.00 0.00 0.00 0.00 0.00 0.00 0.00 0.00 0.00 0.00 0.00 0.00 0.00 0.00 0.00 0.00 0.00 0.00 0.00 0.00 0.00 0.00 0.00 0.00 0.00
950.00 945.00 939.00 934.00 928.00 923.00 920.00 918.00 919.00 921.00 922.00 922.00 922.00 921.00 920.00 919.00 917.00 914.00 911.00 908.00 905.00 901.00 897.00 892.00 887.00 883.00 880.00 876.00 873.00 870.00 866.00 862.00 858.00 857.00 857.00 858.00 861.00 864.00 868.00 871.00 874.00 876.00 878.00 880.00 882.00 883.00 884.00 885.00 886.00 886.00 884.00 882.00 877.00 872.00 866.00 860.00 853.00 846.00 840.00 834.00 829.00 823.00 818.00 814.00 811.00 809.00 807.00 805.00 805.00 805.00 805.00 806.00 808.00 810.00 812.00 814.00 815.00 817.00 818.00 818.00 818.00 818.00 818.00 818.00 819.00 819.00 820.00 822.00 824.00 825.00 826.00 826.00 826.00 825.00 824.00 824.00 824.00 826.00 829.00 831.00 833.00 834.00 835.00 834.00 836.00 837.00 836.00 834.00 830.00 826.00 822.00 819.00 818.00 818.00 818.00 819.00 820.00 821.00 822.00 822.00 822.00 821.00 818.00 813.00 807.00 800.00 793.00 788.00 785.00 786.00 787.00 789.00 790.00 794.00 798.00 804.00 811.00 817.00 823.00 828.00 831.00 831.00 829.00 826.00 822.00 818.00 813.00 809.00 805.00 802.00 800.00 798.00 796.00 794.00 791.00 789.00 786.00 784.00 783.00 783.00 783.00 783.00 783.00 782.00 780.00 778.00 777.00 775.00 774.00 773.00 773.00 772.00 771.00 769.00 767.00 765.00 763.00 760.00 756.00 751.00 745.00 739.00 732.00 725.00 719.00 714.00 710.00 705.00 700.00 695.00 690.00 685.00 680.00 676.00 673.00 671.00 669.00 668.00 666.00 664.00 660.00 655.00 649.00 641.00 634.00 626.00 619.00 613.00 606.00 598.00 589.00 580.00 571.00 562.00 553.00 545.00 537.00 529.00 522.00 517.00 515.00 516.00 520.00 526.00 531.00 537.00 541.00 545.00 549.00 552.00 556.00 560.00 566.00 574.00 583.00 593.00 604.00 614.00 625.00 634.00 642.00 648.00 651.00 652.00 650.00 646.00 642.00 637.00 632.00 627.00 622.00 618.00 613.00 609.00 606.00 603.00 601.00 599.00 595.00 591.00 586.00 580.00 576.00 571.00 567.00 564.00 560.00 557.00 553.00 550.00 548.00 548.00 552.00 559.00 567.00 577.00 588.00 597.00 604.00 610.00 614.00 616.00 616.00 613.00 610.00 606.00 602.00 599.00 597.00 597.00 597.00 595.00 594.00 592.00 589.00 587.00 585.00 584.00 585.00 588.00 593.00 597.00 601.00 602.00 601.00 597.00 590.00 582.00 574.00 567.00 562.00 557.00 552.00 548.00 544.00 540.00 536.00 533.00 530.00 527.00 525.00 523.00 522.00 521.00 520.00 520.00 521.00 522.00 520.00 516.00 509.00 499.00 488.00 477.00 466.00 457.00 448.00 439.00 428.00 418.00 407.00 397.00 389.00 383.00 379.00 375.00 372.00 369.00 366.00 364.00 363.00 362.00 362.00 362.00 362.00 362.00 361.00 360.00 359.00 358.00 357.00 356.00 356.00 356.00 356.00 355.00 355.00 354.00 352.00 349.00 344.00 338.00 332.00 326.00 320.00 314.00 307.00 301.00 295.00 287.00 280.00 272.00 265.00 255.00 248.00 248.00 247.00 236.00 215.00 192.00 179.00 171.00 164.00 158.00 152.00 146.00 140.00 133.00 127.00 121.00 117.00 115.00 113.00 113.00 113.00 113.00 113.00 112.00 110.00 106.00 99.00 91.00 80.00 69.00 56.00 44.00 35.00 28.00 22.00 18.00 14.00 11.00 8.00 4.00 1.00 0.00 0.00 0.00 0.00 0.00 0.00 0.00 0.00 0.00 0.00 0.00 0.00 0.00 0.00 0.00 0.00 0.00 0.00 0.00 0.00 0.00 0.00 0.00 0.00 0.00 0.00 0.00 0.00 0.00 0.00 0.00 0.00 0.00 0.00 0.00 0.00 0.00 0.00 0.00 0.00 0.00 0.00 0.00 0.00 0.00 0.00 0.00 0.00 0.00 0.00 0.00 0.00 0.00 0.00 0.00 0.00 0.00 0.00 0.00 0.00 0.00
940.00 936.00 931.00 925.00 920.00 916.00 916.00 917.00 918.00 918.00 918.00 918.00 917.00 915.00 914.00 912.00 909.00 906.00 903.00 900.00 896.00 892.00 888.00 884.00 880.00 877.00 873.00 870.00 867.00 863.00 859.00 854.00 851.00 849.00 849.00 851.00 853.00 856.00 860.00 862.00 865.00 867.00 869.00 871.00 873.00 875.00 876.00 877.00 878.00 878.00 876.00 874.00 869.00 864.00 859.00 853.00 847.00 842.00 837.00 831.00 826.00 820.00 815.00 810.00 805.00 801.00 799.00 797.00 796.00 796.00 797.00 799.00 801.00 804.00 806.00 809.00 811.00 813.00 814.00 814.00 814.00 814.00 814.00 813.00 813.00 813.00 815.00 816.00 819.00 821.00 822.00 822.00 822.00 821.00 820.00 820.00 820.00 821.00 822.00 824.00 827.00 829.00 831.00 831.00 832.00 832.00 830.00 827.00 824.00 821.00 818.00 815.00 814.00 814.00 814.00 814.00 815.00 817.00 818.00 820.00 820.00 820.00 818.00 813.00 806.00 799.00 792.00 787.00 784.00 786.00 789.00 789.00 788.00 790.00 795.00 800.00 805.00 811.00 817.00 821.00 825.00 826.00 825.00 823.00 820.00 816.00 811.00 807.00 803.00 799.00 796.00 794.00 792.00 790.00 789.00 787.00 785.00 784.00 783.00 782.00 782.00 781.00 780.00 779.00 776.00 774.00 773.00 771.00 770.00 770.00 770.00 769.00 768.00 767.00 765.00 763.00 760.00 757.00 753.00 749.00 745.00 740.00 735.00 730.00 725.00 721.00 716.00 711.00 705.00 698.00 691.00 683.00 676.00 671.00 666.00 663.00 661.00 660.00 658.00 656.00 653.00 649.00 644.00 639.00 633.00 626.00 619.00 612.00 604.00 595.00 586.00 577.00 567.00 557.00 548.00 541.00 534.00 527.00 523.00 521.00 522.00 525.00 532.00 539.00 546.00 552.00 557.00 562.00 565.00 568.00 571.00 575.00 581.00 588.00 596.00 605.00 615.00 626.00 636.00 645.00 653.00 658.00 660.00 659.00 656.00 651.00 646.00 641.00 637.00 633.00 629.00 625.00 621.00 618.00 615.00 613.00 611.00 610.00 607.00 603.00 598.00 593.00 587.00 582.00 579.00 575.00 572.00 569.00 566.00 564.00 562.00 563.00 567.00 573.00 581.00 590.00 599.00 607.00 614.00 619.00 623.00 625.00 626.00 625.00 623.00 620.00 616.00 612.00 609.00 606.00 604.00 602.00 602.00 600.00 597.00 596.00 596.00 597.00 598.00 601.00 605.00 609.00 611.00 611.00 608.00 603.00 596.00 588.00 580.00 574.00 568.00 563.00 559.00 555.00 550.00 546.00 543.00 540.00 537.00 535.00 533.00 532.00 530.00 529.00 528.00 527.00 527.00 527.00 524.00 519.00 511.00 500.00 488.00 475.00 463.00 453.00 444.00 435.00 426.00 416.00 406.00 396.00 389.00 383.00 379.00 375.00 372.00 369.00 367.00 365.00 364.00 364.00 364.00 365.00 366.00 367.00 367.00 366.00 365.00 365.00 364.00 363.00 362.00 362.00 363.00 362.00 362.00 360.00 356.00 350.00 342.00 333.00 323.00 314.00 306.00 299.00 291.00 284.00 278.00 271.00 264.00 256.00 248.00 237.00 228.00 224.00 222.00 209.00 185.00 167.00 158.00 150.00 144.00 140.00 136.00 131.00 125.00 119.00 112.00 107.00 103.00 102.00 102.00 103.00 104.00 105.00 105.00 105.00 103.00 99.00 91.00 80.00 68.00 54.00 41.00 29.00 20.00 14.00 10.00 7.00 6.00 5.00 3.00 1.00 0.00 0.00 0.00 0.00 0.00 0.00 0.00 0.00 0.00 0.00 0.00 0.00 0.00 0.00 0.00 0.00 0.00 0.00 0.00 0.00 0.00 0.00 0.00 0.00 0.00 0.00 0.00 0.00 0.00 0.00 0.00 0.00 0.00 0.00 0.00 0.00 0.00 0.00 0.00 0.00 0.00 0.00 0.00 0.00 0.00 0.00 0.00 0.00 0.00 0.00 0.00 0.00 0.00 0.00 0.00 0.00 0.00 0.00 0.00 0.00 0.00 0.00
927.00 924.00 920.00 915.00 912.00 912.00 912.00 914.00 914.00 914.00 914.00 913.00 911.00 909.00 907.00 905.00 902.00 898.00 895.00 891.00 888.00 884.00 881.00 878.00 874.00 871.00 868.00 865.00 862.00 857.00 852.00 847.00 844.00 842.00 842.00 843.00 845.00 848.00 851.00 853.00 855.00 858.00 860.00 862.00 864.00 866.00 868.00 869.00 869.00 869.00 867.00 865.00 861.00 856.00 851.00 846.00 841.00 837.00 832.00 827.00 822.00 816.00 810.00 804.00 799.00 794.00 791.00 789.00 788.00 788.00 789.00 791.00 794.00 798.00 801.00 804.00 806.00 808.00 809.00 810.00 810.00 809.00 808.00 807.00 806.00 807.00 808.00 811.00 813.00 816.00 818.00 819.00 819.00 818.00 817.00 816.00 816.00 816.00 817.00 819.00 820.00 822.00 823.00 824.00 824.00 823.00 822.00 821.00 818.00 816.00 814.00 812.00 810.00 809.00 809.00 809.00 810.00 811.00 813.00 816.00 818.00 818.00 816.00 811.00 804.00 797.00 791.00 788.00 786.00 786.00 788.00 788.00 786.00 787.00 791.00 796.00 801.00 805.00 810.00 814.00 817.00 819.00 819.00 818.00 816.00 812.00 808.00 804.00 799.00 795.00 792.00 790.00 788.00 787.00 786.00 786.00 785.00 784.00 783.00 782.00 781.00 780.00 778.00 776.00 773.00 771.00 769.00 768.00 767.00 767.00 767.00 766.00 765.00 764.00 762.00 760.00 758.00 756.00 753.00 749.00 746.00 743.00 739.00 736.00 733.00 729.00 725.00 719.00 712.00 703.00 694.00 685.00 676.00 668.00 662.00 658.00 655.00 653.00 651.00 650.00 647.00 644.00 641.00 638.00 633.00 627.00 620.00 612.00 602.00 592.00 582.00 572.00 562.00 553.00 545.00 538.00 533.00 529.00 527.00 528.00 531.00 537.00 544.00 552.00 561.00 568.00 574.00 578.00 582.00 585.00 588.00 592.00 597.00 604.00 611.00 620.00 630.00 640.00 650.00 659.00 666.00 669.00 669.00 666.00 661.00 655.00 649.00 644.00 641.00 638.00 636.00 633.00 629.00 627.00 624.00 622.00 621.00 620.00 618.00 615.00 610.00 604.00 598.00 593.00 589.00 586.00 583.00 581.00 579.00 577.00 577.00 578.00 582.00 587.00 594.00 602.00 610.00 616.00 622.00 626.00 630.00 633.00 635.00 635.00 634.00 631.00 628.00 624.00 620.00 617.00 614.00 612.00 610.00 609.00 607.00 606.00 607.00 608.00 610.00 612.00 615.00 618.00 619.00 618.00 615.00 609.00 602.00 594.00 586.00 580.00 575.00 571.00 566.00 562.00 557.00 553.00 550.00 547.00 545.00 543.00 541.00 540.00 538.00 536.00 535.00 533.00 532.00 531.00 527.00 521.00 511.00 499.00 486.00 473.00 460.00 449.00 440.00 431.00 422.00 412.00 403.00 395.00 388.00 383.00 379.00 376.00 373.00 370.00 368.00 366.00 366.00 366.00 368.00 369.00 371.00 372.00 373.00 373.00 373.00 372.00 371.00 370.00 370.00 369.00 369.00 369.00 367.00 364.00 358.00 351.00 341.00 329.00 316.00 303.00 292.00 282.00 274.00 267.00 260.00 254.00 247.00 240.00 230.00 218.00 206.00 199.00 197.00 184.00 163.00 147.00 137.00 130.00 124.00 119.00 116.00 112.00 107.00 101.00 96.00 92.00 89.00 87.00 87.00 89.00 92.00 94.00 95.00 95.00 93.00 87.00 78.00 66.00 51.00 37.00 25.00 16.00 10.00 5.00 3.00 2.00 1.00 1.00 1.00 0.00 0.00 0.00 0.00 0.00 0.00 0.00 0.00 0.00 0.00 0.00 0.00 0.00 0.00 0.00 0.00 0.00 0.00 0.00 0.00 0.00 0.00 0.00 0.00 0.00 0.00 0.00 0.00 0.00 0.00 0.00 0.00 0.00 0.00 0.00 0.00 0.00 0.00 0.00 0.00 0.00 0.00 0.00 0.00 0.00 0.00 0.00 0.00 0.00 0.00 0.00 0.00 0.00 0.00 0.00 0.00 0.00 0.00 0.00 0.00 0.00 0.00 0.00
914.00 912.00 910.00 908.00 907.00 907.00 907.00 908.00 908.00 908.00 907.00 906.00 905.00 903.00 900.00 897.00 894.00 891.00 887.00 883.00 880.00 876.00 874.00 871.00 868.00 866.00 863.00 860.00 856.00 851.00 846.00 841.00 838.00 836.00 835.00 836.00 837.00 839.00 842.00 844.00 847.00 849.00 851.00 854.00 856.00 858.00 859.00 860.00 860.00 860.00 858.00 855.00 852.00 848.00 844.00 840.00 836.00 832.00 828.00 823.00 817.00 811.00 805.00 798.00 793.00 788.00 784.00 781.00 779.00 779.00 781.00 783.00 787.00 791.00 794.00 798.00 800.00 802.00 803.00 804.00 804.00 803.00 801.00 801.00 800.00 801.00 802.00 805.00 808.00 811.00 814.00 815.00 816.00 815.00 814.00 813.00 813.00 812.00 813.00 813.00 814.00 815.00 816.00 816.00 816.00 815.00 815.00 814.00 812.00 811.00 809.00 807.00 806.00 805.00 803.00 803.00 803.00 805.00 807.00 810.00 813.00 815.00 813.00 809.00 802.00 793.00 788.00 784.00 783.00 783.00 783.00 782.00 780.00 783.00 788.00 792.00 796.00 800.00 804.00 807.00 810.00 812.00 812.00 812.00 810.00 808.00 804.00 800.00 796.00 792.00 789.00 786.00 785.00 784.00 784.00 783.00 783.00 782.00 782.00 781.00 780.00 778.00 776.00 774.00 771.00 769.00 767.00 765.00 765.00 764.00 764.00 763.00 762.00 762.00 760.00 759.00 758.00 756.00 754.00 752.00 750.00 748.00 746.00 744.00 741.00 738.00 733.00 727.00 720.00 710.00 700.00 689.00 678.00 668.00 660.00 654.00 650.00 648.00 646.00 644.00 643.00 641.00 639.00 636.00 633.00 627.00 620.00 610.00 600.00 589.00 578.00 567.00 558.00 549.00 543.00 537.00 534.00 533.00 534.00 537.00 543.00 550.00 558.00 567.00 575.00 583.00 590.00 595.00 599.00 602.00 606.00 610.00 615.00 621.00 629.00 637.00 647.00 657.00 667.00 675.00 680.00 681.00 679.00 674.00 667.00 660.00 653.00 648.00 645.00 643.00 641.00 639.00 636.00 634.00 633.00 631.00 630.00 630.00 629.00 626.00 621.00 616.00 610.00 604.00 600.00 596.00 594.00 592.00 591.00 591.00 591.00 593.00 596.00 601.00 607.00 613.00 619.00 625.00 629.00 633.00 637.00 641.00 643.00 644.00 644.00 642.00 639.00 635.00 632.00 629.00 626.00 623.00 621.00 619.00 618.00 617.00 617.00 617.00 618.00 620.00 623.00 626.00 627.00 625.00 622.00 616.00 609.00 601.00 594.00 588.00 583.00 579.00 574.00 569.00 564.00 560.00 556.00 553.00 551.00 549.00 548.00 546.00 544.00 542.00 539.00 537.00 536.00 534.00 528.00 520.00 509.00 496.00 482.00 469.00 456.00 444.00 435.00 426.00 417.00 408.00 400.00 393.00 387.00 382.00 379.00 377.00 374.00 372.00 370.00 369.00 370.00 371.00 372.00 375.00 377.00 379.00 381.00 382.00 382.00 381.00 380.00 379.00 378.00 377.00 376.00 374.00 371.00 366.00 360.00 352.00 341.00 326.00 311.00 296.00 281.00 268.00 257.00 248.00 242.00 236.00 230.00 222.00 213.00 201.00 188.00 179.00 174.00 162.00 144.00 130.00 118.00 110.00 103.00 98.00 95.00 92.00 89.00 85.00 81.00 77.00 74.00 72.00 73.00 75.00 78.00 81.00 83.00 82.00 78.00 72.00 62.00 49.00 35.00 23.00 14.00 8.00 4.00 2.00 0.00 0.00 0.00 0.00 0.00 0.00 0.00 0.00 0.00 0.00 0.00 0.00 0.00 0.00 0.00 0.00 0.00 0.00 0.00 0.00 0.00 0.00 0.00 0.00 0.00 0.00 0.00 0.00 0.00 0.00 0.00 0.00 0.00 0.00 0.00 0.00 0.00 0.00 0.00 0.00 0.00 0.00 0.00 0.00 0.00 0.00 0.00 0.00 0.00 0.00 0.00 0.00 0.00 0.00 0.00 0.00 0.00 0.00 0.00 0.00 0.00 0.00 0.00 0.00 0.00 0.00 0.00 0.00
905.00 904.00 902.00 901.00 900.00 899.00 898.00 898.00 899.00 899.00 899.00 899.00 898.00 896.00 893.00 890.00 887.00 884.00 880.00 876.00 872.00 869.00 865.00 863.00 861.00 859.00 856.00 853.00 850.00 845.00 840.00 835.00 831.00 829.00 828.00 829.00 830.00 831.00 834.00 836.00 839.00 841.00 844.00 846.00 849.00 851.00 852.00 853.00 853.00 852.00 850.00 848.00 844.00 841.00 837.00 834.00 830.00 827.00 823.00 818.00 812.00 806.00 799.00 793.00 787.00 781.00 777.00 773.00 771.00 771.00 772.00 774.00 778.00 783.00 787.00 791.00 794.00 796.00 797.00 797.00 797.00 796.00 795.00 795.00 795.00 796.00 797.00 800.00 804.00 807.00 810.00 811.00 812.00 812.00 810.00 809.00 808.00 807.00 807.00 807.00 807.00 808.00 808.00 808.00 807.00 807.00 807.00 807.00 806.00 805.00 803.00 802.00 801.00 799.00 798.00 798.00 798.00 799.00 802.00 805.00 808.00 810.00 809.00 805.00 799.00 790.00 783.00 777.00 775.00 775.00 775.00 774.00 774.00 778.00 783.00 787.00 792.00 796.00 799.00 801.00 803.00 805.00 805.00 806.00 805.00 803.00 800.00 796.00 793.00 789.00 786.00 783.00 782.00 781.00 780.00 780.00 779.00 779.00 779.00 778.00 778.00 777.00 775.00 773.00 771.00 769.00 767.00 765.00 764.00 763.00 762.00 761.00 761.00 761.00 760.00 760.00 759.00 758.00 757.00 756.00 754.00 753.00 751.00 750.00 748.00 745.00 741.00 735.00 726.00 716.00 705.00 693.00 681.00 669.00 659.00 652.00 646.00 643.00 641.00 640.00 639.00 638.00 636.00 634.00 631.00 625.00 617.00 607.00 596.00 584.00 572.00 562.00 553.00 546.00 542.00 539.00 538.00 539.00 543.00 548.00 555.00 563.00 572.00 582.00 591.00 599.00 606.00 612.00 617.00 621.00 625.00 629.00 634.00 640.00 647.00 656.00 666.00 675.00 684.00 690.00 693.00 692.00 688.00 681.00 674.00 667.00 660.00 656.00 653.00 650.00 648.00 646.00 644.00 642.00 641.00 640.00 640.00 640.00 639.00 636.00 632.00 627.00 622.00 616.00 611.00 607.00 604.00 603.00 602.00 603.00 605.00 607.00 610.00 615.00 620.00 625.00 630.00 634.00 637.00 641.00 645.00 649.00 651.00 653.00 652.00 651.00 648.00 645.00 642.00 639.00 637.00 634.00 632.00 630.00 628.00 627.00 625.00 624.00 625.00 626.00 629.00 632.00 633.00 632.00 629.00 624.00 617.00 610.00 603.00 597.00 592.00 588.00 583.00 577.00 572.00 567.00 562.00 558.00 556.00 554.00 552.00 550.00 547.00 545.00 541.00 538.00 536.00 533.00 526.00 515.00 503.00 489.00 475.00 461.00 449.00 438.00 429.00 421.00 413.00 405.00 398.00 391.00 386.00 382.00 379.00 377.00 376.00 374.00 373.00 373.00 374.00 376.00 378.00 381.00 384.00 387.00 389.00 390.00 391.00 390.00 389.00 387.00 385.00 384.00 381.00 377.00 373.00 367.00 361.00 351.00 338.00 322.00 304.00 286.00 269.00 253.00 239.00 229.00 221.00 215.00 209.00 202.00 194.00 185.00 174.00 164.00 154.00 142.00 128.00 113.00 101.00 91.00 84.00 80.00 77.00 76.00 74.00 71.00 67.00 63.00 60.00 59.00 58.00 60.00 63.00 66.00 68.00 67.00 62.00 55.00 45.00 33.00 22.00 14.00 8.00 4.00 2.00 1.00 0.00 0.00 0.00 0.00 0.00 0.00 0.00 0.00 0.00 0.00 0.00 0.00 0.00 0.00 0.00 0.00 0.00 0.00 0.00 0.00 0.00 0.00 0.00 0.00 0.00 0.00 0.00 0.00 0.00 0.00 0.00 0.00 0.00 0.00 0.00 0.00 0.00 0.00 0.00 0.00 0.00 0.00 0.00 0.00 0.00 0.00 0.00 0.00 0.00 0.00 0.00 0.00 0.00 0.00 0.00 0.00 0.00 0.00 0.00 0.00 0.00 0.00 0.00 0.00 0.00 0.00 0.00 0.00
898.00 896.00 894.00 892.00 889.00 887.00 886.00 886.00 887.00 888.00 889.00 889.00 889.00 889.00 887.00 884.00 881.00 877.00 873.00 868.00 864.00 860.00 856.00 854.00 852.00 850.00 848.00 845.00 842.00 837.00 833.00 828.00 825.00 822.00 821.00 821.00 823.00 824.00 826.00 829.00 832.00 834.00 837.00 839.00 842.00 844.00 846.00 847.00 847.00 846.00 844.00 841.00 838.00 835.00 832.00 829.00 826.00 822.00 817.00 812.00 806.00 800.00 794.00 787.00 781.00 776.00 771.00 767.00 764.00 763.00 764.00 766.00 770.00 775.00 780.00 784.00 788.00 790.00 791.00 791.00 791.00 790.00 790.00 790.00 790.00 791.00 793.00 795.00 799.00 802.00 804.00 806.00 807.00 807.00 806.00 804.00 802.00 800.00 799.00 797.00 797.00 797.00 797.00 796.00 796.00 797.00 798.00 798.00 799.00 798.00 797.00 796.00 795.00 794.00 793.00 793.00 793.00 795.00 797.00 800.00 803.00 805.00 805.00 801.00 795.00 788.00 780.00 773.00 769.00 768.00 767.00 766.00 768.00 772.00 777.00 782.00 787.00 791.00 794.00 796.00 798.00 799.00 800.00 800.00 800.00 799.00 797.00 793.00 790.00 786.00 783.00 780.00 778.00 777.00 776.00 775.00 774.00 774.00 774.00 774.00 774.00 775.00 774.00 774.00 773.00 771.00 770.00 768.00 767.00 765.00 763.00 762.00 762.00 762.00 762.00 762.00 762.00 761.00 759.00 758.00 757.00 756.00 754.00 753.00 752.00 749.00 745.00 739.00 730.00 720.00 709.00 696.00 683.00 670.00 659.00 649.00 643.00 639.00 636.00 635.00 634.00 633.00 632.00 630.00 626.00 620.00 612.00 601.00 589.00 577.00 566.00 556.00 549.00 544.00 541.00 540.00 542.00 546.00 553.00 560.00 568.00 577.00 587.00 596.00 606.00 615.00 623.00 631.00 637.00 642.00 646.00 650.00 654.00 660.00 666.00 675.00 683.00 692.00 699.00 703.00 704.00 701.00 696.00 690.00 682.00 676.00 670.00 666.00 663.00 660.00 657.00 655.00 653.00 651.00 650.00 649.00 649.00 650.00 649.00 647.00 644.00 640.00 635.00 629.00 623.00 619.00 616.00 614.00 614.00 615.00 617.00 620.00 624.00 628.00 633.00 637.00 641.00 644.00 647.00 651.00 654.00 657.00 660.00 661.00 660.00 659.00 656.00 653.00 651.00 648.00 646.00 644.00 642.00 639.00 637.00 634.00 632.00 631.00 631.00 632.00 635.00 637.00 639.00 638.00 636.00 631.00 626.00 619.00 613.00 607.00 602.00 597.00 592.00 586.00 580.00 574.00 568.00 564.00 560.00 558.00 555.00 552.00 549.00 545.00 541.00 536.00 532.00 527.00 519.00 507.00 493.00 479.00 465.00 452.00 440.00 431.00 422.00 415.00 408.00 401.00 395.00 390.00 385.00 382.00 380.00 378.00 377.00 377.00 377.00 378.00 379.00 382.00 385.00 388.00 391.00 394.00 396.00 398.00 398.00 397.00 395.00 393.00 390.00 387.00 382.00 377.00 371.00 366.00 358.00 346.00 332.00 314.00 293.00 270.00 252.00 237.00 222.00 209.00 200.00 193.00 187.00 181.00 175.00 168.00 160.00 150.00 139.00 128.00 114.00 100.00 87.00 77.00 70.00 65.00 63.00 62.00 60.00 57.00 54.00 51.00 47.00 45.00 45.00 46.00 48.00 50.00 52.00 51.00 46.00 40.00 31.00 22.00 14.00 9.00 5.00 3.00 1.00 0.00 0.00 0.00 0.00 0.00 0.00 0.00 0.00 0.00 0.00 0.00 0.00 0.00 0.00 0.00 0.00 0.00 0.00 0.00 0.00 0.00 0.00 0.00 0.00 0.00 0.00 0.00 0.00 0.00 0.00 0.00 0.00 0.00 0.00 0.00 0.00 0.00 0.00 0.00 0.00 0.00 0.00 0.00 0.00 0.00 0.00 0.00 0.00 0.00 0.00 0.00 0.00 0.00 0.00 0.00 0.00 0.00 0.00 0.00 0.00 0.00 0.00 0.00 0.00 0.00 0.00 0.00 0.00 0.00
889.00 887.00 883.00 880.00 877.00 875.00 874.00 874.00 875.00 876.00 877.00 879.00 881.00 881.00 881.00 879.00 876.00 872.00 867.00 861.00 855.00 850.00 846.00 843.00 841.00 839.00 837.00 834.00 831.00 827.00 823.00 819.00 816.00 813.00 812.00 813.00 815.00 817.00 819.00 822.00 825.00 828.00 831.00 833.00 836.00 839.00 840.00 841.00 842.00 841.00 839.00 836.00 833.00 830.00 827.00 825.00 822.00 818.00 813.00 807.00 801.00 795.00 789.00 783.00 777.00 771.00 766.00 761.00 758.00 756.00 756.00 758.00 762.00 767.00 772.00 778.00 782.00 784.00 785.00 786.00 785.00 785.00 784.00 784.00 784.00 785.00 786.00 789.00 791.00 794.00 797.00 799.00 801.00 801.00 799.00 797.00 795.00 792.00 790.00 788.00 786.00 784.00 783.00 783.00 783.00 784.00 786.00 788.00 790.00 791.00 791.00 791.00 790.00 789.00 789.00 789.00 789.00 790.00 792.00 794.00 797.00 799.00 799.00 796.00 791.00 785.00 778.00 771.00 766.00 763.00 761.00 761.00 763.00 766.00 770.00 775.00 781.00 785.00 789.00 792.00 794.00 795.00 796.00 797.00 796.00 796.00 794.00 791.00 788.00 784.00 780.00 777.00 774.00 772.00 770.00 768.00 768.00 768.00 769.00 770.00 771.00 773.00 774.00 775.00 775.00 775.00 774.00 773.00 771.00 769.00 767.00 766.00 765.00 765.00 764.00 764.00 764.00 762.00 760.00 759.00 757.00 756.00 755.00 754.00 752.00 750.00 746.00 739.00 730.00 721.00 710.00 697.00 683.00 670.00 657.00 647.00 639.00 634.00 631.00 630.00 628.00 627.00 625.00 622.00 618.00 612.00 603.00 593.00 581.00 569.00 559.00 551.00 545.00 542.00 542.00 543.00 547.00 554.00 562.00 572.00 581.00 591.00 600.00 610.00 620.00 630.00 640.00 649.00 657.00 663.00 668.00 672.00 675.00 679.00 684.00 691.00 698.00 705.00 710.00 713.00 713.00 709.00 704.00 698.00 692.00 686.00 682.00 678.00 674.00 671.00 668.00 665.00 663.00 661.00 660.00 660.00 660.00 660.00 659.00 658.00 656.00 653.00 648.00 643.00 637.00 632.00 628.00 626.00 625.00 627.00 629.00 633.00 638.00 643.00 647.00 651.00 653.00 656.00 658.00 661.00 664.00 667.00 668.00 668.00 667.00 665.00 663.00 660.00 658.00 656.00 654.00 652.00 650.00 647.00 644.00 642.00 639.00 638.00 638.00 639.00 642.00 644.00 645.00 644.00 642.00 639.00 634.00 628.00 622.00 616.00 611.00 605.00 599.00 593.00 587.00 580.00 574.00 568.00 564.00 561.00 558.00 554.00 549.00 543.00 537.00 531.00 525.00 518.00 509.00 495.00 480.00 466.00 453.00 441.00 432.00 424.00 417.00 411.00 404.00 399.00 393.00 388.00 385.00 382.00 380.00 379.00 378.00 379.00 380.00 382.00 384.00 387.00 390.00 393.00 396.00 399.00 401.00 401.00 401.00 400.00 397.00 393.00 389.00 384.00 378.00 371.00 364.00 357.00 349.00 337.00 322.00 303.00 279.00 253.00 236.00 222.00 206.00 192.00 182.00 174.00 167.00 162.00 157.00 153.00 147.00 138.00 127.00 116.00 104.00 91.00 78.00 67.00 59.00 54.00 51.00 49.00 46.00 44.00 41.00 38.00 35.00 33.00 31.00 32.00 33.00 34.00 35.00 34.00 31.00 26.00 21.00 15.00 10.00 6.00 5.00 4.00 3.00 1.00 0.00 0.00 0.00 0.00 0.00 0.00 0.00 0.00 0.00 0.00 0.00 0.00 0.00 0.00 0.00 0.00 0.00 0.00 0.00 0.00 0.00 0.00 0.00 0.00 0.00 0.00 0.00 0.00 0.00 0.00 0.00 0.00 0.00 0.00 0.00 0.00 0.00 0.00 0.00 0.00 0.00 0.00 0.00 0.00 0.00 0.00 0.00 0.00 0.00 0.00 0.00 0.00 0.00 0.00 0.00 0.00 0.00 0.00 0.00 0.00 0.00 0.00 0.00 0.00 0.00 0.00 0.00 0.00
879.00 875.00 872.00 868.00 865.00 863.00 862.00 862.00 863.00 864.00 867.00 869.00 872.00 874.00 874.00 873.00 871.00 867.00 861.00 853.00 846.00 840.00 835.00 832.00 829.00 827.00 825.00 822.00 818.00 815.00 811.00 807.00 805.00 803.00 802.00 803.00 805.00 808.00 811.00 815.00 818.00 822.00 825.00 828.00 831.00 833.00 835.00 836.00 836.00 836.00 834.00 832.00 829.00 826.00 824.00 821.00 818.00 814.00 809.00 803.00 797.00 790.00 783.00 778.00 772.00 767.00 762.00 757.00 753.00 750.00 750.00 751.00 755.00 760.00 766.00 771.00 776.00 778.00 780.00 780.00 780.00 779.00 778.00 777.00 777.00 776.00 777.00 779.00 781.00 784.00 786.00 789.00 790.00 791.00 790.00 789.00 787.00 785.00 782.00 779.00 776.00 773.00 770.00 768.00 768.00 770.00 772.00 776.00 779.00 782.00 783.00 784.00 784.00 785.00 784.00 784.00 785.00 785.00 786.00 788.00 790.00 791.00 792.00 790.00 787.00 782.00 776.00 770.00 765.00 761.00 758.00 757.00 757.00 760.00 763.00 768.00 774.00 779.00 783.00 786.00 789.00 791.00 792.00 793.00 793.00 792.00 791.00 788.00 785.00 781.00 777.00 773.00 769.00 766.00 763.00 762.00 761.00 762.00 763.00 765.00 768.00 770.00 772.00 774.00 776.00 777.00 777.00 776.00 774.00 773.00 771.00 770.00 768.00 767.00 767.00 766.00 765.00 763.00 760.00 758.00 756.00 754.00 752.00 751.00 749.00 747.00 742.00 736.00 727.00 718.00 708.00 696.00 683.00 669.00 657.00 645.00 636.00 630.00 627.00 624.00 622.00 619.00 615.00 611.00 606.00 600.00 592.00 582.00 572.00 563.00 554.00 548.00 544.00 543.00 544.00 547.00 553.00 562.00 572.00 582.00 593.00 603.00 612.00 622.00 632.00 643.00 655.00 666.00 676.00 684.00 689.00 692.00 694.00 697.00 700.00 704.00 709.00 714.00 718.00 720.00 719.00 716.00 712.00 706.00 701.00 697.00 694.00 691.00 687.00 683.00 680.00 676.00 673.00 671.00 670.00 669.00 669.00 669.00 669.00 669.00 668.00 665.00 661.00 656.00 651.00 646.00 642.00 639.00 638.00 639.00 642.00 647.00 652.00 657.00 662.00 665.00 667.00 668.00 671.00 673.00 675.00 677.00 677.00 677.00 675.00 673.00 671.00 668.00 666.00 664.00 662.00 660.00 657.00 655.00 652.00 649.00 647.00 646.00 647.00 648.00 649.00 650.00 651.00 650.00 648.00 645.00 641.00 635.00 629.00 623.00 617.00 611.00 605.00 599.00 593.00 586.00 579.00 573.00 568.00 564.00 560.00 554.00 547.00 540.00 532.00 524.00 515.00 507.00 496.00 483.00 467.00 453.00 442.00 432.00 425.00 418.00 413.00 407.00 402.00 397.00 392.00 388.00 385.00 382.00 380.00 379.00 380.00 381.00 383.00 385.00 388.00 391.00 394.00 396.00 399.00 400.00 401.00 400.00 398.00 395.00 391.00 385.00 379.00 373.00 366.00 359.00 351.00 343.00 334.00 324.00 309.00 291.00 269.00 245.00 224.00 208.00 192.00 178.00 167.00 159.00 152.00 147.00 143.00 139.00 135.00 128.00 117.00 107.00 96.00 83.00 70.00 59.00 51.00 45.00 40.00 37.00 34.00 32.00 29.00 27.00 24.00 22.00 21.00 20.00 20.00 20.00 20.00 20.00 18.00 15.00 12.00 9.00 7.00 6.00 5.00 5.00 4.00 3.00 1.00 0.00 0.00 0.00 0.00 0.00 0.00 0.00 0.00 0.00 0.00 0.00 0.00 0.00 0.00 0.00 0.00 0.00 0.00 0.00 0.00 0.00 0.00 0.00 0.00 0.00 0.00 0.00 0.00 0.00 0.00 0.00 0.00 0.00 0.00 0.00 0.00 0.00 0.00 0.00 0.00 0.00 0.00 0.00 0.00 0.00 0.00 0.00 0.00 0.00 0.00 0.00 0.00 0.00 0.00 0.00 0.00 0.00 0.00 0.00 0.00 0.00 0.00 0.00 0.00 0.00 0.00 0.00
867.00 863.00 860.00 857.00 854.00 852.00 852.00 852.00 853.00 854.00 857.00 860.00 864.00 866.00 868.00 867.00 865.00 861.00 854.00 846.00 838.00 831.00 825.00 821.00 818.00 816.00 813.00 809.00 805.00 801.00 798.00 795.00 792.00 791.00 791.00 792.00 794.00 797.00 802.00 806.00 811.00 814.00 818.00 822.00 825.00 827.00 829.00 830.00 831.00 830.00 829.00 827.00 825.00 822.00 820.00 817.00 814.00 810.00 805.00 798.00 791.00 784.00 778.00 772.00 767.00 762.00 757.00 752.00 748.00 746.00 745.00 746.00 749.00 753.00 759.00 764.00 769.00 772.00 774.00 774.00 773.00 772.00 770.00 768.00 766.00 765.00 765.00 766.00 767.00 770.00 772.00 775.00 777.00 778.00 779.00 779.00 778.00 777.00 775.00 772.00 768.00 763.00 758.00 755.00 754.00 755.00 758.00 763.00 767.00 771.00 774.00 776.00 777.00 778.00 778.00 779.00 779.00 779.00 779.00 780.00 782.00 784.00 785.00 785.00 783.00 779.00 774.00 769.00 763.00 759.00 755.00 753.00 753.00 754.00 757.00 762.00 767.00 772.00 777.00 781.00 784.00 786.00 788.00 789.00 789.00 788.00 787.00 784.00 782.00 778.00 773.00 768.00 764.00 760.00 757.00 755.00 755.00 756.00 758.00 760.00 763.00 767.00 769.00 772.00 774.00 776.00 776.00 776.00 775.00 774.00 773.00 771.00 770.00 768.00 767.00 766.00 764.00 761.00 758.00 755.00 752.00 749.00 747.00 745.00 743.00 740.00 736.00 729.00 722.00 714.00 704.00 693.00 681.00 668.00 656.00 645.00 635.00 628.00 623.00 618.00 614.00 609.00 604.00 599.00 594.00 588.00 581.00 573.00 566.00 559.00 553.00 549.00 547.00 547.00 549.00 553.00 561.00 570.00 581.00 593.00 603.00 613.00 622.00 631.00 640.00 652.00 664.00 677.00 689.00 699.00 705.00 708.00 710.00 712.00 713.00 716.00 719.00 723.00 725.00 726.00 726.00 723.00 720.00 715.00 711.00 708.00 705.00 703.00 700.00 696.00 692.00 688.00 684.00 682.00 680.00 679.00 679.00 679.00 680.00 680.00 679.00 677.00 674.00 669.00 664.00 659.00 655.00 652.00 651.00 652.00 655.00 659.00 665.00 670.00 675.00 678.00 680.00 681.00 683.00 685.00 686.00 687.00 687.00 686.00 685.00 682.00 679.00 677.00 675.00 672.00 670.00 668.00 666.00 663.00 660.00 658.00 656.00 655.00 656.00 656.00 657.00 657.00 657.00 656.00 654.00 651.00 646.00 641.00 635.00 628.00 622.00 615.00 609.00 603.00 596.00 590.00 584.00 578.00 572.00 567.00 561.00 553.00 544.00 534.00 525.00 515.00 505.00 495.00 484.00 471.00 457.00 444.00 434.00 427.00 421.00 416.00 411.00 405.00 400.00 395.00 391.00 387.00 385.00 383.00 381.00 381.00 381.00 383.00 385.00 388.00 390.00 393.00 395.00 396.00 397.00 396.00 395.00 392.00 388.00 383.00 377.00 370.00 362.00 356.00 349.00 342.00 335.00 327.00 318.00 308.00 295.00 278.00 260.00 240.00 219.00 200.00 183.00 169.00 157.00 148.00 141.00 136.00 131.00 128.00 124.00 117.00 107.00 97.00 87.00 75.00 62.00 51.00 43.00 36.00 31.00 28.00 25.00 23.00 21.00 19.00 17.00 16.00 14.00 13.00 12.00 11.00 11.00 10.00 9.00 8.00 7.00 6.00 5.00 5.00 6.00 6.00 5.00 4.00 1.00 0.00 0.00 0.00 0.00 0.00 0.00 0.00 0.00 0.00 0.00 0.00 0.00 0.00 0.00 0.00 0.00 0.00 0.00 0.00 0.00 0.00 0.00 0.00 0.00 0.00 0.00 0.00 0.00 0.00 0.00 0.00 0.00 0.00 0.00 0.00 0.00 0.00 0.00 0.00 0.00 0.00 0.00 0.00 0.00 0.00 0.00 0.00 0.00 0.00 0.00 0.00 0.00 0.00 0.00 0.00 0.00 0.00 0.00 0.00 0.00 0.00 0.00 0.00 0.00 0.00 0.00 0.00
855.00 852.00 849.00 846.00 844.00 843.00 843.00 843.00 844.00 846.00 849.00 852.00 856.00 859.00 860.00 861.00 859.00 854.00 848.00 839.00 831.00 823.00 816.00 812.00 809.00 806.00 802.00 797.00 792.00 788.00 784.00 781.00 780.00 779.00 780.00 781.00 783.00 787.00 791.00 796.00 801.00 806.00 810.00 814.00 817.00 820.00 822.00 823.00 824.00 823.00 822.00 820.00 818.00 816.00 814.00 812.00 809.00 806.00 800.00 794.00 786.00 779.00 772.00 766.00 761.00 757.00 752.00 748.00 745.00 742.00 740.00 740.00 742.00 746.00 750.00 755.00 760.00 764.00 766.00 766.00 765.00 763.00 760.00 756.00 753.00 750.00 749.00 749.00 750.00 753.00 756.00 758.00 761.00 763.00 765.00 766.00 767.00 768.00 767.00 765.00 761.00 755.00 749.00 744.00 741.00 742.00 744.00 749.00 754.00 759.00 763.00 766.00 768.00 769.00 770.00 771.00 771.00 771.00 771.00 772.00 774.00 776.00 778.00 779.00 779.00 777.00 773.00 768.00 762.00 757.00 752.00 750.00 748.00 749.00 752.00 756.00 760.00 765.00 770.00 774.00 777.00 780.00 782.00 784.00 784.00 784.00 782.00 780.00 777.00 774.00 769.00 764.00 759.00 755.00 752.00 750.00 750.00 751.00 753.00 756.00 758.00 762.00 765.00 767.00 770.00 771.00 772.00 773.00 772.00 772.00 771.00 770.00 768.00 767.00 765.00 763.00 761.00 757.00 753.00 749.00 746.00 743.00 740.00 738.00 736.00 733.00 728.00 722.00 715.00 708.00 699.00 689.00 678.00 667.00 655.00 644.00 634.00 626.00 619.00 613.00 607.00 601.00 595.00 589.00 583.00 579.00 574.00 569.00 564.00 560.00 556.00 554.00 553.00 554.00 557.00 562.00 570.00 580.00 591.00 602.00 612.00 621.00 629.00 637.00 646.00 658.00 670.00 684.00 697.00 708.00 715.00 719.00 722.00 723.00 724.00 726.00 729.00 732.00 734.00 735.00 734.00 733.00 729.00 726.00 722.00 719.00 717.00 715.00 712.00 708.00 703.00 699.00 695.00 692.00 691.00 690.00 690.00 691.00 691.00 691.00 690.00 688.00 685.00 681.00 676.00 672.00 668.00 665.00 664.00 664.00 667.00 670.00 675.00 680.00 685.00 688.00 689.00 691.00 692.00 694.00 695.00 696.00 696.00 695.00 693.00 691.00 689.00 687.00 684.00 682.00 680.00 678.00 675.00 672.00 669.00 667.00 665.00 664.00 663.00 664.00 664.00 663.00 663.00 661.00 658.00 655.00 650.00 645.00 638.00 631.00 624.00 617.00 611.00 604.00 598.00 593.00 587.00 581.00 575.00 568.00 560.00 551.00 540.00 529.00 519.00 508.00 497.00 486.00 474.00 463.00 451.00 441.00 432.00 426.00 421.00 415.00 410.00 405.00 400.00 395.00 391.00 388.00 385.00 383.00 382.00 381.00 382.00 384.00 386.00 388.00 390.00 392.00 393.00 392.00 390.00 388.00 384.00 378.00 372.00 364.00 357.00 349.00 342.00 336.00 330.00 324.00 318.00 311.00 302.00 292.00 280.00 266.00 250.00 233.00 215.00 196.00 179.00 164.00 152.00 142.00 134.00 128.00 122.00 117.00 112.00 105.00 95.00 85.00 75.00 65.00 54.00 43.00 35.00 29.00 25.00 22.00 21.00 19.00 19.00 18.00 17.00 15.00 13.00 11.00 9.00 8.00 7.00 6.00 5.00 5.00 4.00 5.00 5.00 6.00 6.00 6.00 6.00 5.00 3.00 1.00 0.00 0.00 0.00 0.00 0.00 0.00 0.00 0.00 0.00 0.00 0.00 0.00 0.00 0.00 0.00 0.00 0.00 0.00 0.00 0.00 0.00 0.00 0.00 0.00 0.00 0.00 0.00 0.00 0.00 0.00 0.00 0.00 0.00 0.00 0.00 0.00 0.00 0.00 0.00 0.00 0.00 0.00 0.00 0.00 0.00 0.00 0.00 0.00 0.00 0.00 0.00 0.00 0.00 0.00 0.00 0.00 0.00 0.00 0.00 0.00 0.00 0.00 0.00 0.00 0.00 0.00
845.00 842.00 840.00 838.00 836.00 835.00 834.00 834.00 835.00 837.00 840.00 844.00 848.00 851.00 853.00 853.00 852.00 847.00 841.00 833.00 824.00 816.00 809.00 804.00 800.00 796.00 791.00 785.00 780.00 775.00 771.00 769.00 768.00 768.00 769.00 771.00 774.00 777.00 782.00 786.00 791.00 797.00 802.00 806.00 809.00 812.00 814.00 815.00 816.00 815.00 814.00 812.00 811.00 809.00 807.00 806.00 804.00 801.00 796.00 789.00 781.00 773.00 766.00 761.00 756.00 752.00 748.00 745.00 742.00 739.00 736.00 735.00 735.00 737.00 740.00 744.00 748.00 752.00 755.00 756.00 755.00 753.00 749.00 743.00 738.00 734.00 731.00 731.00 731.00 734.00 737.00 740.00 742.00 745.00 748.00 751.00 754.00 756.00 758.00 758.00 754.00 748.00 741.00 735.00 730.00 728.00 730.00 734.00 739.00 744.00 749.00 752.00 756.00 758.00 760.00 761.00 762.00 763.00 764.00 765.00 767.00 769.00 772.00 774.00 774.00 774.00 771.00 767.00 761.00 755.00 750.00 746.00 745.00 745.00 747.00 750.00 754.00 758.00 762.00 766.00 770.00 773.00 775.00 777.00 778.00 778.00 777.00 775.00 773.00 769.00 764.00 760.00 755.00 751.00 748.00 746.00 746.00 747.00 748.00 750.00 753.00 756.00 758.00 761.00 763.00 764.00 766.00 767.00 767.00 768.00 767.00 766.00 765.00 763.00 761.00 758.00 755.00 751.00 747.00 742.00 738.00 735.00 732.00 730.00 728.00 725.00 720.00 714.00 708.00 701.00 693.00 684.00 674.00 663.00 653.00 642.00 633.00 625.00 617.00 610.00 602.00 595.00 588.00 583.00 578.00 575.00 573.00 571.00 569.00 566.00 565.00 563.00 564.00 565.00 568.00 573.00 581.00 590.00 600.00 610.00 620.00 627.00 634.00 641.00 650.00 661.00 673.00 687.00 700.00 712.00 720.00 725.00 728.00 730.00 732.00 735.00 737.00 740.00 742.00 743.00 743.00 742.00 740.00 736.00 733.00 730.00 728.00 726.00 723.00 719.00 715.00 710.00 707.00 704.00 702.00 702.00 702.00 702.00 703.00 703.00 701.00 699.00 696.00 692.00 688.00 684.00 680.00 677.00 676.00 675.00 676.00 679.00 682.00 686.00 690.00 693.00 695.00 697.00 699.00 700.00 701.00 702.00 702.00 702.00 701.00 699.00 697.00 695.00 694.00 692.00 690.00 688.00 685.00 681.00 678.00 674.00 671.00 670.00 669.00 669.00 669.00 668.00 667.00 665.00 662.00 658.00 653.00 647.00 640.00 632.00 625.00 618.00 611.00 605.00 599.00 594.00 588.00 583.00 576.00 568.00 559.00 548.00 537.00 526.00 515.00 505.00 493.00 482.00 471.00 459.00 450.00 442.00 434.00 427.00 422.00 417.00 412.00 406.00 401.00 396.00 392.00 388.00 385.00 383.00 382.00 381.00 381.00 383.00 384.00 386.00 386.00 386.00 385.00 383.00 379.00 373.00 367.00 359.00 351.00 343.00 335.00 328.00 322.00 316.00 311.00 306.00 300.00 293.00 285.00 275.00 264.00 252.00 238.00 224.00 208.00 191.00 176.00 162.00 150.00 139.00 130.00 122.00 115.00 107.00 100.00 92.00 83.00 73.00 64.00 55.00 46.00 38.00 31.00 27.00 25.00 24.00 24.00 24.00 24.00 24.00 23.00 21.00 18.00 15.00 13.00 10.00 8.00 7.00 6.00 6.00 6.00 6.00 7.00 8.00 9.00 9.00 8.00 7.00 5.00 3.00 1.00 0.00 0.00 0.00 0.00 0.00 0.00 0.00 0.00 0.00 0.00 0.00 0.00 0.00 0.00 0.00 0.00 0.00 0.00 0.00 0.00 0.00 0.00 0.00 0.00 0.00 0.00 0.00 0.00 0.00 0.00 0.00 0.00 0.00 0.00 0.00 0.00 0.00 0.00 0.00 0.00 0.00 0.00 0.00 0.00 0.00 0.00 0.00 0.00 0.00 0.00 0.00 0.00 0.00 0.00 0.00 0.00 0.00 0.00 0.00 0.00 0.00 0.00 0.00 0.00 0.00
838.00 835.00 833.00 831.00 830.00 828.00 827.00 826.00 827.00 828.00 831.00 835.00 839.00 842.00 844.00 845.00 844.00 840.00 834.00 826.00 818.00 809.00 802.00 796.00 791.00 787.00 781.00 774.00 768.00 763.00 759.00 757.00 757.00 758.00 761.00 763.00 766.00 770.00 774.00 778.00 783.00 788.00 793.00 797.00 801.00 804.00 806.00 807.00 807.00 806.00 805.00 804.00 803.00 802.00 801.00 800.00 799.00 796.00 792.00 785.00 777.00 769.00 761.00 755.00 750.00 747.00 744.00 742.00 739.00 736.00 733.00 730.00 728.00 727.00 728.00 731.00 735.00 739.00 743.00 745.00 745.00 743.00 738.00 732.00 725.00 719.00 714.00 712.00 712.00 714.00 717.00 720.00 722.00 726.00 729.00 733.00 738.00 744.00 748.00 749.00 747.00 741.00 734.00 726.00 720.00 716.00 716.00 718.00 722.00 727.00 731.00 736.00 740.00 743.00 746.00 749.00 751.00 753.00 755.00 757.00 759.00 762.00 765.00 768.00 770.00 771.00 769.00 765.00 760.00 754.00 748.00 743.00 741.00 740.00 741.00 744.00 747.00 751.00 755.00 758.00 761.00 764.00 767.00 770.00 771.00 772.00 771.00 770.00 768.00 764.00 760.00 756.00 752.00 748.00 745.00 743.00 743.00 743.00 744.00 745.00 747.00 749.00 752.00 754.00 755.00 757.00 759.00 760.00 761.00 762.00 762.00 761.00 759.00 758.00 755.00 752.00 748.00 743.00 739.00 734.00 730.00 727.00 725.00 723.00 720.00 716.00 711.00 706.00 700.00 692.00 685.00 676.00 667.00 658.00 648.00 640.00 632.00 624.00 616.00 608.00 600.00 593.00 587.00 583.00 580.00 579.00 579.00 579.00 579.00 578.00 578.00 577.00 577.00 579.00 583.00 587.00 593.00 601.00 610.00 618.00 626.00 633.00 639.00 645.00 653.00 663.00 675.00 688.00 701.00 712.00 720.00 726.00 731.00 734.00 737.00 741.00 744.00 747.00 749.00 750.00 751.00 750.00 748.00 746.00 743.00 740.00 738.00 736.00 733.00 730.00 726.00 722.00 718.00 716.00 714.00 714.00 714.00 715.00 715.00 714.00 712.00 710.00 706.00 702.00 698.00 694.00 690.00 687.00 685.00 684.00 684.00 685.00 687.00 690.00 693.00 695.00 698.00 700.00 701.00 703.00 704.00 705.00 705.00 705.00 705.00 704.00 703.00 702.00 701.00 700.00 698.00 697.00 694.00 689.00 685.00 680.00 676.00 673.00 672.00 671.00 671.00 671.00 670.00 668.00 664.00 659.00 653.00 646.00 639.00 632.00 624.00 617.00 610.00 604.00 599.00 594.00 589.00 583.00 576.00 568.00 558.00 547.00 536.00 525.00 515.00 505.00 494.00 483.00 472.00 461.00 452.00 445.00 438.00 431.00 426.00 420.00 414.00 408.00 403.00 397.00 392.00 388.00 384.00 381.00 379.00 378.00 377.00 377.00 377.00 377.00 376.00 374.00 371.00 366.00 361.00 354.00 346.00 337.00 328.00 320.00 313.00 307.00 302.00 297.00 293.00 288.00 282.00 275.00 266.00 257.00 247.00 236.00 225.00 212.00 198.00 184.00 170.00 157.00 145.00 134.00 124.00 114.00 105.00 97.00 88.00 80.00 71.00 63.00 54.00 47.00 41.00 36.00 32.00 31.00 31.00 32.00 34.00 35.00 36.00 36.00 34.00 32.00 29.00 25.00 21.00 18.00 15.00 13.00 12.00 11.00 11.00 12.00 13.00 14.00 14.00 14.00 13.00 11.00 8.00 5.00 3.00 1.00 0.00 0.00 0.00 0.00 0.00 0.00 0.00 0.00 0.00 0.00 0.00 0.00 0.00 0.00 0.00 0.00 0.00 0.00 0.00 0.00 0.00 0.00 0.00 0.00 0.00 0.00 0.00 0.00 0.00 0.00 0.00 0.00 0.00 0.00 0.00 0.00 0.00 0.00 0.00 0.00 0.00 0.00 0.00 0.00 0.00 0.00 0.00 0.00 0.00 0.00 0.00 0.00 0.00 0.00 0.00 0.00 0.00 0.00 0.00 0.00 0.00 0.00 0.00 0.00
834.00 831.00 828.00 826.00 824.00 822.00 820.00 819.00 819.00 820.00 822.00 826.00 830.00 834.00 836.00 837.00 836.00 832.00 826.00 819.00 811.00 803.00 796.00 790.00 784.00 778.00 772.00 765.00 758.00 752.00 748.00 747.00 747.00 750.00 753.00 757.00 760.00 764.00 768.00 771.00 776.00 780.00 785.00 790.00 794.00 797.00 799.00 799.00 799.00 798.00 798.00 797.00 796.00 796.00 795.00 795.00 794.00 792.00 788.00 781.00 773.00 764.00 756.00 749.00 745.00 742.00 740.00 738.00 735.00 732.00 728.00 723.00 720.00 717.00 717.00 718.00 722.00 726.00 730.00 734.00 736.00 734.00 729.00 722.00 714.00 706.00 700.00 696.00 695.00 696.00 698.00 701.00 704.00 707.00 712.00 717.00 724.00 731.00 737.00 740.00 739.00 734.00 727.00 718.00 711.00 705.00 703.00 703.00 705.00 708.00 712.00 717.00 721.00 726.00 731.00 736.00 740.00 743.00 746.00 749.00 752.00 755.00 759.00 763.00 765.00 767.00 766.00 764.00 759.00 753.00 746.00 741.00 738.00 737.00 737.00 739.00 742.00 745.00 748.00 750.00 753.00 756.00 758.00 761.00 763.00 765.00 765.00 764.00 763.00 760.00 757.00 754.00 750.00 747.00 744.00 742.00 741.00 740.00 740.00 741.00 742.00 743.00 745.00 747.00 749.00 751.00 752.00 754.00 755.00 756.00 756.00 755.00 753.00 751.00 748.00 744.00 739.00 734.00 730.00 725.00 721.00 719.00 717.00 715.00 712.00 708.00 703.00 697.00 691.00 683.00 675.00 667.00 659.00 651.00 643.00 636.00 629.00 622.00 615.00 607.00 601.00 595.00 591.00 589.00 588.00 589.00 591.00 593.00 594.00 595.00 595.00 594.00 594.00 597.00 601.00 605.00 608.00 613.00 620.00 627.00 634.00 639.00 645.00 651.00 658.00 667.00 678.00 690.00 702.00 712.00 720.00 726.00 731.00 736.00 740.00 744.00 748.00 751.00 753.00 755.00 755.00 755.00 754.00 752.00 750.00 748.00 746.00 744.00 742.00 739.00 735.00 732.00 729.00 727.00 726.00 725.00 725.00 726.00 726.00 725.00 723.00 720.00 716.00 711.00 707.00 702.00 698.00 694.00 691.00 689.00 688.00 688.00 689.00 691.00 693.00 695.00 697.00 699.00 701.00 702.00 703.00 704.00 705.00 705.00 704.00 704.00 704.00 704.00 704.00 704.00 703.00 702.00 699.00 694.00 689.00 684.00 679.00 675.00 673.00 672.00 671.00 671.00 669.00 666.00 662.00 656.00 650.00 643.00 636.00 629.00 622.00 615.00 609.00 603.00 598.00 593.00 588.00 582.00 574.00 566.00 556.00 546.00 536.00 526.00 516.00 507.00 496.00 486.00 476.00 465.00 457.00 450.00 444.00 436.00 429.00 422.00 416.00 409.00 403.00 396.00 390.00 385.00 380.00 375.00 372.00 369.00 367.00 366.00 364.00 362.00 360.00 356.00 351.00 345.00 339.00 331.00 323.00 314.00 306.00 299.00 293.00 287.00 283.00 278.00 274.00 269.00 263.00 255.00 247.00 238.00 229.00 219.00 209.00 198.00 186.00 174.00 162.00 149.00 138.00 126.00 115.00 105.00 96.00 86.00 78.00 70.00 62.00 55.00 48.00 43.00 40.00 38.00 38.00 39.00 42.00 46.00 49.00 51.00 52.00 51.00 49.00 46.00 42.00 38.00 34.00 30.00 27.00 24.00 23.00 22.00 21.00 22.00 23.00 24.00 24.00 23.00 20.00 16.00 12.00 8.00 4.00 2.00 1.00 0.00 0.00 0.00 0.00 0.00 0.00 0.00 0.00 0.00 0.00 0.00 0.00 0.00 0.00 0.00 0.00 0.00 0.00 0.00 0.00 0.00 0.00 0.00 0.00 0.00 0.00 0.00 0.00 0.00 0.00 0.00 0.00 0.00 0.00 0.00 0.00 0.00 0.00 0.00 0.00 0.00 0.00 0.00 0.00 0.00 0.00 0.00 0.00 0.00 0.00 0.00 0.00 0.00 0.00 0.00 0.00 0.00 0.00 0.00 0.00 0.00 0.00 0.00
832.00 829.00 825.00 822.00 819.00 816.00 814.00 812.00 811.00 812.00 814.00 818.00 822.00 826.00 829.00 829.00 827.00 824.00 818.00 811.00 804.00 796.00 790.00 783.00 777.00 771.00 764.00 756.00 749.00 743.00 738.00 736.00 737.00 740.00 745.00 750.00 754.00 759.00 763.00 766.00 770.00 774.00 779.00 783.00 787.00 790.00 792.00 792.00 792.00 792.00 792.00 791.00 791.00 791.00 790.00 790.00 790.00 787.00 783.00 776.00 767.00 758.00 750.00 743.00 739.00 736.00 735.00 733.00 731.00 727.00 722.00 716.00 711.00 708.00 706.00 706.00 709.00 714.00 720.00 725.00 729.00 728.00 723.00 715.00 705.00 695.00 687.00 682.00 680.00 681.00 682.00 685.00 688.00 692.00 697.00 704.00 712.00 720.00 728.00 732.00 732.00 728.00 721.00 712.00 702.00 695.00 691.00 689.00 689.00 690.00 693.00 697.00 703.00 709.00 715.00 722.00 727.00 732.00 737.00 741.00 745.00 748.00 753.00 757.00 760.00 763.00 763.00 761.00 757.00 752.00 745.00 740.00 736.00 734.00 734.00 735.00 736.00 739.00 741.00 743.00 745.00 747.00 749.00 752.00 755.00 757.00 758.00 758.00 758.00 756.00 754.00 752.00 749.00 746.00 744.00 742.00 740.00 739.00 737.00 737.00 737.00 738.00 739.00 741.00 743.00 745.00 747.00 749.00 750.00 751.00 751.00 750.00 748.00 745.00 741.00 737.00 732.00 727.00 722.00 718.00 714.00 712.00 710.00 708.00 705.00 701.00 695.00 688.00 681.00 673.00 665.00 657.00 650.00 643.00 637.00 631.00 626.00 620.00 614.00 608.00 604.00 600.00 598.00 599.00 601.00 604.00 608.00 611.00 613.00 613.00 613.00 613.00 612.00 615.00 620.00 623.00 623.00 626.00 631.00 637.00 643.00 648.00 653.00 659.00 666.00 674.00 684.00 695.00 705.00 713.00 721.00 727.00 732.00 737.00 742.00 746.00 749.00 752.00 755.00 756.00 757.00 757.00 757.00 756.00 754.00 752.00 750.00 749.00 747.00 745.00 743.00 740.00 738.00 736.00 735.00 734.00 734.00 735.00 735.00 734.00 732.00 729.00 725.00 720.00 714.00 708.00 703.00 698.00 694.00 692.00 690.00 689.00 690.00 690.00 691.00 692.00 694.00 696.00 697.00 699.00 700.00 700.00 701.00 701.00 701.00 701.00 701.00 702.00 702.00 703.00 703.00 702.00 700.00 695.00 690.00 684.00 679.00 675.00 672.00 670.00 669.00 667.00 665.00 661.00 656.00 650.00 642.00 635.00 628.00 622.00 616.00 611.00 606.00 601.00 596.00 591.00 585.00 579.00 571.00 562.00 553.00 544.00 534.00 525.00 516.00 507.00 498.00 488.00 479.00 469.00 460.00 453.00 447.00 439.00 431.00 423.00 415.00 407.00 399.00 392.00 384.00 376.00 370.00 363.00 358.00 354.00 351.00 348.00 345.00 342.00 338.00 334.00 329.00 323.00 316.00 309.00 301.00 293.00 285.00 279.00 274.00 269.00 265.00 261.00 257.00 251.00 245.00 237.00 229.00 219.00 209.00 200.00 191.00 182.00 173.00 163.00 152.00 141.00 130.00 118.00 107.00 96.00 87.00 78.00 70.00 62.00 56.00 50.00 45.00 42.00 42.00 44.00 48.00 52.00 57.00 62.00 66.00 69.00 69.00 68.00 65.00 62.00 57.00 53.00 48.00 45.00 41.00 39.00 37.00 36.00 35.00 36.00 37.00 38.00 37.00 35.00 30.00 23.00 17.00 10.00 6.00 2.00 1.00 0.00 0.00 0.00 0.00 0.00 0.00 0.00 0.00 0.00 0.00 0.00 0.00 0.00 0.00 0.00 0.00 0.00 0.00 0.00 0.00 0.00 0.00 0.00 0.00 0.00 0.00 0.00 0.00 0.00 0.00 0.00 0.00 0.00 0.00 0.00 0.00 0.00 0.00 0.00 0.00 0.00 0.00 0.00 0.00 0.00 0.00 0.00 0.00 0.00 0.00 0.00 0.00 0.00 0.00 0.00 0.00 0.00 0.00 0.00 0.00 0.00 0.00 0.00
831.00 827.00 823.00 819.00 815.00 812.00 808.00 806.00 804.00 805.00 807.00 810.00 815.00 818.00 821.00 821.00 818.00 814.00 809.00 803.00 796.00 789.00 783.00 777.00 771.00 764.00 757.00 749.00 741.00 734.00 729.00 728.00 729.00 731.00 735.00 741.00 747.00 752.00 757.00 762.00 766.00 770.00 774.00 778.00 781.00 784.00 786.00 787.00 787.00 788.00 787.00 787.00 787.00 787.00 786.00 785.00 784.00 781.00 776.00 768.00 760.00 751.00 743.00 737.00 733.00 731.00 730.00 728.00 725.00 721.00 715.00 709.00 704.00 699.00 696.00 696.00 699.00 704.00 712.00 719.00 724.00 725.00 720.00 711.00 700.00 688.00 678.00 671.00 668.00 668.00 669.00 671.00 674.00 679.00 685.00 693.00 703.00 712.00 721.00 726.00 727.00 723.00 716.00 707.00 696.00 687.00 681.00 677.00 674.00 674.00 676.00 680.00 685.00 692.00 700.00 707.00 714.00 721.00 727.00 732.00 736.00 741.00 746.00 750.00 755.00 758.00 760.00 759.00 756.00 751.00 745.00 740.00 735.00 733.00 731.00 731.00 732.00 733.00 735.00 736.00 737.00 739.00 741.00 743.00 746.00 749.00 751.00 752.00 752.00 752.00 751.00 750.00 748.00 747.00 745.00 743.00 740.00 737.00 735.00 733.00 732.00 733.00 734.00 736.00 738.00 740.00 742.00 744.00 745.00 746.00 746.00 745.00 743.00 740.00 736.00 731.00 726.00 721.00 716.00 712.00 709.00 707.00 704.00 702.00 699.00 694.00 687.00 679.00 671.00 663.00 655.00 648.00 642.00 636.00 632.00 627.00 623.00 619.00 615.00 611.00 608.00 607.00 607.00 610.00 614.00 620.00 625.00 629.00 631.00 632.00 632.00 630.00 629.00 629.00 632.00 633.00 634.00 638.00 643.00 649.00 654.00 659.00 663.00 669.00 675.00 683.00 692.00 701.00 710.00 717.00 724.00 729.00 734.00 738.00 742.00 746.00 750.00 752.00 754.00 756.00 757.00 758.00 757.00 757.00 756.00 754.00 753.00 752.00 751.00 750.00 748.00 746.00 744.00 743.00 742.00 741.00 741.00 741.00 742.00 741.00 739.00 736.00 731.00 726.00 719.00 712.00 705.00 699.00 695.00 691.00 689.00 688.00 688.00 688.00 687.00 688.00 689.00 691.00 692.00 693.00 694.00 694.00 694.00 694.00 694.00 695.00 695.00 696.00 697.00 698.00 698.00 698.00 696.00 692.00 687.00 682.00 676.00 671.00 668.00 665.00 663.00 661.00 658.00 653.00 647.00 640.00 632.00 624.00 617.00 612.00 607.00 603.00 599.00 595.00 591.00 586.00 580.00 573.00 564.00 556.00 547.00 538.00 529.00 521.00 512.00 504.00 495.00 486.00 478.00 469.00 460.00 452.00 444.00 437.00 428.00 419.00 410.00 401.00 392.00 382.00 372.00 363.00 354.00 346.00 339.00 334.00 329.00 325.00 321.00 317.00 313.00 309.00 304.00 300.00 295.00 288.00 282.00 275.00 268.00 263.00 258.00 254.00 250.00 246.00 241.00 236.00 229.00 221.00 211.00 201.00 191.00 181.00 173.00 165.00 158.00 150.00 141.00 131.00 120.00 109.00 97.00 87.00 77.00 69.00 63.00 57.00 53.00 50.00 47.00 46.00 48.00 54.00 61.00 68.00 73.00 79.00 84.00 86.00 85.00 84.00 81.00 77.00 72.00 68.00 64.00 60.00 57.00 55.00 53.00 51.00 51.00 51.00 52.00 52.00 51.00 46.00 39.00 30.00 21.00 13.00 7.00 3.00 1.00 0.00 0.00 0.00 0.00 0.00 0.00 0.00 0.00 0.00 0.00 0.00 0.00 0.00 0.00 0.00 0.00 0.00 0.00 0.00 0.00 0.00 0.00 0.00 0.00 0.00 0.00 0.00 0.00 0.00 0.00 0.00 0.00 0.00 0.00 0.00 0.00 0.00 0.00 0.00 0.00 0.00 0.00 0.00 0.00 0.00 0.00 0.00 0.00 0.00 0.00 0.00 0.00 0.00 0.00 0.00 0.00 0.00 0.00 0.00 0.00 0.00 0.00 0.00
830.00 825.00 820.00 815.00 811.00 807.00 804.00 801.00 799.00 799.00 800.00 803.00 807.00 810.00 812.00 811.00 809.00 805.00 800.00 794.00 788.00 782.00 777.00 771.00 765.00 758.00 750.00 742.00 733.00 726.00 722.00 723.00 723.00 722.00 724.00 731.00 737.00 744.00 750.00 755.00 760.00 765.00 770.00 774.00 777.00 780.00 782.00 783.00 784.00 784.00 784.00 784.00 783.00 782.00 780.00 778.00 776.00 772.00 766.00 759.00 751.00 743.00 735.00 730.00 727.00 725.00 724.00 722.00 719.00 715.00 709.00 703.00 697.00 692.00 689.00 688.00 691.00 697.00 705.00 714.00 721.00 723.00 719.00 710.00 698.00 685.00 673.00 664.00 659.00 657.00 657.00 658.00 661.00 667.00 675.00 684.00 695.00 706.00 716.00 722.00 724.00 721.00 715.00 705.00 694.00 684.00 675.00 668.00 664.00 662.00 663.00 666.00 672.00 678.00 686.00 694.00 702.00 709.00 716.00 721.00 727.00 733.00 739.00 744.00 750.00 754.00 756.00 757.00 754.00 750.00 745.00 740.00 735.00 732.00 729.00 728.00 728.00 728.00 729.00 729.00 730.00 731.00 732.00 735.00 737.00 740.00 743.00 745.00 746.00 747.00 747.00 747.00 747.00 746.00 745.00 743.00 740.00 736.00 733.00 731.00 729.00 729.00 729.00 731.00 733.00 735.00 737.00 739.00 740.00 741.00 741.00 740.00 739.00 736.00 732.00 728.00 722.00 717.00 712.00 708.00 705.00 702.00 700.00 697.00 693.00 687.00 680.00 671.00 663.00 655.00 647.00 641.00 636.00 632.00 628.00 625.00 623.00 619.00 616.00 614.00 613.00 613.00 616.00 621.00 627.00 633.00 639.00 644.00 646.00 647.00 647.00 645.00 643.00 642.00 641.00 639.00 642.00 649.00 656.00 662.00 666.00 671.00 675.00 680.00 685.00 692.00 700.00 708.00 716.00 722.00 728.00 733.00 737.00 740.00 744.00 747.00 750.00 752.00 754.00 755.00 756.00 757.00 757.00 757.00 756.00 755.00 755.00 754.00 753.00 752.00 751.00 750.00 748.00 747.00 746.00 746.00 746.00 746.00 746.00 745.00 743.00 740.00 735.00 729.00 721.00 713.00 705.00 699.00 693.00 689.00 687.00 685.00 684.00 684.00 683.00 683.00 684.00 685.00 685.00 686.00 686.00 685.00 685.00 685.00 685.00 685.00 686.00 687.00 688.00 689.00 690.00 690.00 688.00 685.00 681.00 676.00 670.00 665.00 661.00 658.00 656.00 653.00 649.00 644.00 637.00 628.00 620.00 612.00 605.00 600.00 596.00 592.00 590.00 587.00 582.00 577.00 571.00 563.00 554.00 545.00 537.00 528.00 520.00 512.00 505.00 497.00 489.00 481.00 473.00 465.00 455.00 446.00 436.00 428.00 419.00 410.00 400.00 390.00 379.00 368.00 356.00 346.00 336.00 326.00 318.00 311.00 305.00 299.00 295.00 290.00 287.00 283.00 280.00 277.00 274.00 270.00 265.00 260.00 254.00 249.00 244.00 240.00 236.00 232.00 228.00 223.00 215.00 206.00 196.00 185.00 174.00 165.00 157.00 150.00 145.00 138.00 130.00 121.00 110.00 98.00 87.00 77.00 68.00 62.00 57.00 54.00 53.00 53.00 53.00 55.00 59.00 67.00 77.00 85.00 90.00 95.00 99.00 101.00 100.00 98.00 95.00 91.00 87.00 83.00 80.00 77.00 74.00 71.00 69.00 67.00 66.00 66.00 66.00 65.00 62.00 55.00 46.00 35.00 24.00 14.00 7.00 3.00 1.00 0.00 0.00 0.00 0.00 0.00 0.00 0.00 0.00 0.00 0.00 0.00 0.00 0.00 0.00 0.00 0.00 0.00 0.00 0.00 0.00 0.00 0.00 0.00 0.00 0.00 0.00 0.00 0.00 0.00 0.00 0.00 0.00 0.00 0.00 0.00 0.00 0.00 0.00 0.00 0.00 0.00 0.00 0.00 0.00 0.00 0.00 0.00 0.00 0.00 0.00 0.00 0.00 0.00 0.00 0.00 0.00 0.00 0.00 0.00 0.00 0.00 0.00 0.00
827.00 822.00 817.00 812.00 807.00 802.00 799.00 796.00 794.00 793.00 794.00 796.00 798.00 800.00 801.00 800.00 798.00 794.00 790.00 785.00 780.00 775.00 770.00 764.00 758.00 752.00 744.00 735.00 727.00 719.00 715.00 717.00 716.00 712.00 714.00 720.00 727.00 734.00 741.00 748.00 754.00 759.00 764.00 769.00 772.00 775.00 777.00 779.00 779.00 780.00 780.00 780.00 778.00 775.00 772.00 769.00 766.00 761.00 756.00 749.00 742.00 735.00 729.00 724.00 721.00 719.00 718.00 716.00 714.00 710.00 704.00 698.00 692.00 687.00 683.00 682.00 685.00 692.00 701.00 710.00 718.00 721.00 718.00 709.00 697.00 684.00 671.00 660.00 653.00 649.00 648.00 648.00 651.00 657.00 666.00 677.00 689.00 701.00 711.00 719.00 722.00 721.00 716.00 707.00 696.00 685.00 674.00 666.00 660.00 656.00 656.00 658.00 662.00 668.00 675.00 683.00 690.00 697.00 704.00 710.00 717.00 724.00 731.00 739.00 746.00 751.00 754.00 756.00 755.00 753.00 748.00 742.00 735.00 731.00 727.00 724.00 723.00 722.00 722.00 722.00 723.00 723.00 724.00 726.00 729.00 731.00 734.00 736.00 738.00 739.00 741.00 743.00 745.00 746.00 745.00 742.00 739.00 735.00 732.00 729.00 727.00 726.00 726.00 728.00 729.00 731.00 732.00 734.00 734.00 735.00 735.00 734.00 733.00 731.00 728.00 724.00 719.00 714.00 709.00 704.00 701.00 698.00 695.00 692.00 687.00 680.00 673.00 664.00 656.00 648.00 641.00 636.00 633.00 630.00 628.00 626.00 624.00 621.00 619.00 617.00 617.00 619.00 623.00 629.00 636.00 643.00 649.00 654.00 657.00 657.00 657.00 656.00 654.00 653.00 651.00 650.00 653.00 661.00 668.00 673.00 678.00 682.00 686.00 691.00 696.00 702.00 709.00 716.00 722.00 727.00 732.00 736.00 739.00 742.00 745.00 747.00 749.00 751.00 753.00 755.00 756.00 756.00 757.00 756.00 756.00 756.00 755.00 755.00 754.00 754.00 754.00 753.00 752.00 751.00 750.00 750.00 750.00 750.00 749.00 748.00 745.00 741.00 735.00 729.00 721.00 712.00 704.00 697.00 691.00 686.00 683.00 681.00 679.00 678.00 677.00 676.00 677.00 677.00 677.00 677.00 676.00 675.00 673.00 672.00 672.00 672.00 673.00 674.00 676.00 677.00 678.00 679.00 678.00 676.00 672.00 667.00 662.00 657.00 653.00 650.00 647.00 644.00 640.00 634.00 626.00 618.00 609.00 600.00 593.00 588.00 585.00 582.00 580.00 576.00 571.00 566.00 558.00 550.00 541.00 532.00 524.00 517.00 509.00 502.00 495.00 488.00 480.00 473.00 465.00 456.00 445.00 434.00 423.00 413.00 403.00 394.00 385.00 375.00 364.00 351.00 339.00 328.00 317.00 307.00 298.00 289.00 281.00 275.00 270.00 265.00 262.00 259.00 257.00 256.00 254.00 252.00 249.00 246.00 241.00 237.00 233.00 230.00 226.00 222.00 218.00 212.00 204.00 194.00 183.00 171.00 161.00 152.00 144.00 139.00 133.00 127.00 119.00 110.00 99.00 88.00 77.00 68.00 61.00 56.00 55.00 55.00 57.00 59.00 62.00 66.00 72.00 82.00 93.00 100.00 105.00 110.00 113.00 113.00 112.00 110.00 108.00 105.00 101.00 98.00 95.00 92.00 89.00 86.00 83.00 81.00 80.00 79.00 77.00 75.00 69.00 60.00 48.00 36.00 23.00 13.00 6.00 3.00 1.00 0.00 0.00 0.00 0.00 0.00 0.00 0.00 0.00 0.00 0.00 0.00 0.00 0.00 0.00 0.00 0.00 0.00 0.00 0.00 0.00 0.00 0.00 0.00 0.00 0.00 0.00 0.00 0.00 0.00 0.00 0.00 0.00 0.00 0.00 0.00 0.00 0.00 0.00 0.00 0.00 0.00 0.00 0.00 0.00 0.00 0.00 0.00 0.00 0.00 0.00 0.00 0.00 0.00 0.00 0.00 0.00 0.00 0.00 0.00 0.00 0.00 0.00 0.00
824.00 819.00 813.00 807.00 801.00 796.00 793.00 790.00 787.00 786.00 786.00 787.00 788.00 789.00 789.00 789.00 787.00 784.00 780.00 776.00 772.00 767.00 763.00 758.00 752.00 746.00 739.00 730.00 721.00 713.00 708.00 707.00 706.00 703.00 704.00 710.00 716.00 724.00 731.00 739.00 746.00 752.00 757.00 762.00 766.00 769.00 772.00 774.00 775.00 774.00 774.00 774.00 772.00 767.00 763.00 760.00 756.00 752.00 748.00 743.00 737.00 730.00 724.00 719.00 716.00 714.00 712.00 711.00 708.00 704.00 699.00 694.00 688.00 682.00 679.00 678.00 681.00 688.00 696.00 706.00 714.00 718.00 716.00 709.00 697.00 684.00 671.00 659.00 650.00 645.00 642.00 642.00 644.00 649.00 657.00 669.00 682.00 695.00 707.00 716.00 721.00 722.00 718.00 711.00 700.00 689.00 677.00 667.00 659.00 653.00 651.00 652.00 655.00 660.00 666.00 673.00 680.00 686.00 693.00 700.00 707.00 715.00 725.00 734.00 742.00 748.00 753.00 756.00 757.00 756.00 751.00 744.00 737.00 731.00 726.00 721.00 719.00 717.00 716.00 716.00 715.00 715.00 715.00 717.00 719.00 721.00 723.00 724.00 726.00 729.00 733.00 737.00 741.00 744.00 744.00 741.00 738.00 735.00 731.00 728.00 726.00 725.00 725.00 725.00 726.00 727.00 727.00 728.00 728.00 728.00 727.00 727.00 725.00 724.00 721.00 718.00 713.00 709.00 704.00 700.00 697.00 693.00 690.00 685.00 680.00 674.00 667.00 659.00 652.00 645.00 640.00 636.00 633.00 632.00 630.00 628.00 626.00 624.00 622.00 621.00 621.00 623.00 627.00 633.00 640.00 648.00 654.00 659.00 662.00 663.00 663.00 663.00 662.00 661.00 662.00 663.00 667.00 673.00 678.00 683.00 688.00 692.00 696.00 700.00 705.00 711.00 717.00 722.00 727.00 732.00 736.00 739.00 741.00 743.00 746.00 748.00 749.00 751.00 753.00 754.00 755.00 756.00 756.00 756.00 756.00 756.00 756.00 755.00 755.00 755.00 755.00 754.00 754.00 753.00 753.00 753.00 753.00 752.00 751.00 749.00 745.00 740.00 734.00 727.00 719.00 710.00 701.00 694.00 687.00 682.00 677.00 674.00 672.00 670.00 669.00 669.00 668.00 669.00 668.00 667.00 665.00 663.00 660.00 658.00 657.00 657.00 658.00 660.00 661.00 663.00 665.00 666.00 666.00 665.00 662.00 658.00 653.00 649.00 645.00 642.00 639.00 636.00 632.00 625.00 618.00 609.00 600.00 592.00 585.00 580.00 576.00 573.00 569.00 565.00 559.00 553.00 545.00 537.00 528.00 520.00 513.00 506.00 499.00 492.00 485.00 478.00 470.00 462.00 454.00 443.00 432.00 419.00 407.00 396.00 385.00 375.00 367.00 358.00 348.00 336.00 324.00 312.00 301.00 290.00 280.00 270.00 261.00 253.00 247.00 242.00 239.00 236.00 235.00 234.00 234.00 234.00 232.00 230.00 228.00 226.00 223.00 221.00 218.00 214.00 209.00 202.00 193.00 183.00 172.00 161.00 151.00 142.00 135.00 129.00 123.00 116.00 108.00 99.00 88.00 78.00 68.00 61.00 57.00 55.00 56.00 59.00 63.00 68.00 73.00 80.00 89.00 100.00 108.00 113.00 118.00 122.00 124.00 124.00 123.00 121.00 119.00 117.00 115.00 113.00 110.00 107.00 104.00 100.00 97.00 94.00 92.00 89.00 85.00 80.00 70.00 59.00 45.00 32.00 20.00 11.00 5.00 2.00 0.00 0.00 0.00 0.00 0.00 0.00 0.00 0.00 0.00 0.00 0.00 0.00 0.00 0.00 0.00 0.00 0.00 0.00 0.00 0.00 0.00 0.00 0.00 0.00 0.00 0.00 0.00 0.00 0.00 0.00 0.00 0.00 0.00 0.00 0.00 0.00 0.00 0.00 0.00 0.00 0.00 0.00 0.00 0.00 0.00 0.00 0.00 0.00 0.00 0.00 0.00 0.00 0.00 0.00 0.00 0.00 0.00 0.00 0.00 0.00 0.00 0.00 0.00 0.00
820.00 814.00 807.00 800.00 793.00 789.00 785.00 783.00 781.00 779.00 779.00 779.00 779.00 779.00 779.00 778.00 776.00 773.00 771.00 767.00 763.00 760.00 756.00 752.00 747.00 741.00 734.00 726.00 717.00 709.00 702.00 698.00 695.00 694.00 696.00 700.00 706.00 713.00 721.00 729.00 736.00 743.00 749.00 754.00 759.00 763.00 765.00 767.00 769.00 768.00 766.00 764.00 762.00 758.00 754.00 751.00 748.00 746.00 743.00 739.00 734.00 727.00 721.00 717.00 713.00 709.00 707.00 705.00 702.00 698.00 693.00 687.00 682.00 678.00 675.00 675.00 678.00 685.00 693.00 702.00 711.00 715.00 715.00 709.00 699.00 687.00 674.00 661.00 650.00 643.00 642.00 641.00 641.00 643.00 649.00 661.00 675.00 689.00 701.00 711.00 718.00 721.00 719.00 713.00 703.00 692.00 680.00 670.00 661.00 653.00 648.00 647.00 650.00 653.00 658.00 665.00 671.00 676.00 683.00 690.00 699.00 708.00 718.00 727.00 736.00 743.00 749.00 753.00 756.00 755.00 752.00 746.00 739.00 731.00 724.00 719.00 715.00 712.00 711.00 709.00 707.00 706.00 706.00 707.00 709.00 710.00 711.00 712.00 714.00 718.00 722.00 727.00 732.00 736.00 738.00 739.00 738.00 735.00 731.00 728.00 726.00 725.00 724.00 724.00 723.00 722.00 721.00 721.00 720.00 719.00 718.00 717.00 716.00 715.00 712.00 710.00 706.00 702.00 698.00 694.00 690.00 687.00 683.00 679.00 675.00 669.00 663.00 657.00 651.00 646.00 642.00 640.00 638.00 637.00 635.00 633.00 630.00 628.00 625.00 623.00 623.00 625.00 629.00 635.00 642.00 649.00 656.00 661.00 665.00 666.00 667.00 668.00 668.00 668.00 670.00 673.00 677.00 681.00 686.00 691.00 696.00 699.00 703.00 708.00 712.00 717.00 723.00 727.00 732.00 735.00 739.00 741.00 743.00 745.00 746.00 748.00 749.00 751.00 753.00 754.00 755.00 756.00 756.00 757.00 756.00 756.00 756.00 756.00 756.00 756.00 756.00 755.00 755.00 755.00 755.00 755.00 755.00 754.00 752.00 748.00 744.00 739.00 732.00 724.00 716.00 707.00 699.00 690.00 683.00 676.00 670.00 666.00 663.00 661.00 659.00 659.00 659.00 659.00 658.00 656.00 653.00 650.00 647.00 644.00 643.00 643.00 643.00 645.00 647.00 650.00 652.00 654.00 655.00 654.00 651.00 648.00 644.00 640.00 636.00 634.00 632.00 629.00 625.00 619.00 612.00 604.00 596.00 589.00 582.00 576.00 571.00 565.00 560.00 554.00 548.00 540.00 533.00 525.00 518.00 511.00 505.00 499.00 492.00 484.00 476.00 468.00 460.00 451.00 441.00 430.00 417.00 404.00 391.00 378.00 367.00 357.00 349.00 342.00 334.00 324.00 312.00 300.00 288.00 276.00 265.00 254.00 244.00 235.00 227.00 222.00 218.00 215.00 213.00 213.00 213.00 214.00 214.00 214.00 213.00 213.00 212.00 211.00 209.00 206.00 200.00 192.00 183.00 173.00 162.00 152.00 143.00 134.00 127.00 120.00 114.00 106.00 97.00 88.00 79.00 71.00 64.00 59.00 57.00 58.00 62.00 67.00 73.00 80.00 87.00 95.00 105.00 116.00 122.00 126.00 130.00 133.00 134.00 134.00 133.00 131.00 130.00 128.00 127.00 126.00 123.00 120.00 116.00 112.00 108.00 105.00 102.00 97.00 91.00 81.00 68.00 54.00 39.00 25.00 15.00 7.00 3.00 1.00 0.00 0.00 0.00 0.00 0.00 0.00 0.00 0.00 0.00 0.00 0.00 0.00 0.00 0.00 0.00 0.00 0.00 0.00 0.00 0.00 0.00 0.00 0.00 0.00 0.00 0.00 0.00 0.00 0.00 0.00 0.00 0.00 0.00 0.00 0.00 0.00 0.00 0.00 0.00 0.00 0.00 0.00 0.00 0.00 0.00 0.00 0.00 0.00 0.00 0.00 0.00 0.00 0.00 0.00 0.00 0.00 0.00 0.00 0.00 0.00 0.00 0.00 0.00 0.00
815.00 808.00 800.00 792.00 786.00 781.00 777.00 775.00 774.00 773.00 772.00 772.00 771.00 770.00 769.00 767.00 765.00 763.00 760.00 758.00 755.00 752.00 749.00 746.00 742.00 736.00 730.00 722.00 713.00 705.00 698.00 692.00 688.00 686.00 688.00 691.00 696.00 703.00 710.00 717.00 725.00 732.00 739.00 745.00 750.00 755.00 758.00 759.00 759.00 758.00 756.00 753.00 751.00 748.00 745.00 743.00 740.00 738.00 736.00 733.00 729.00 723.00 718.00 714.00 710.00 705.00 700.00 697.00 694.00 690.00 685.00 680.00 675.00 672.00 671.00 673.00 678.00 684.00 692.00 700.00 708.00 713.00 713.00 709.00 701.00 690.00 678.00 664.00 652.00 644.00 642.00 640.00 638.00 638.00 642.00 652.00 666.00 680.00 693.00 703.00 711.00 715.00 714.00 710.00 702.00 691.00 681.00 674.00 666.00 656.00 647.00 643.00 644.00 647.00 651.00 655.00 660.00 666.00 672.00 680.00 688.00 698.00 708.00 718.00 727.00 736.00 743.00 749.00 753.00 754.00 751.00 746.00 739.00 730.00 722.00 715.00 709.00 706.00 703.00 701.00 699.00 698.00 697.00 698.00 698.00 699.00 699.00 700.00 702.00 704.00 709.00 714.00 720.00 726.00 730.00 734.00 735.00 734.00 732.00 729.00 727.00 726.00 725.00 723.00 721.00 718.00 716.00 714.00 713.00 711.00 709.00 708.00 707.00 705.00 703.00 701.00 698.00 695.00 691.00 687.00 684.00 680.00 677.00 674.00 671.00 667.00 662.00 657.00 653.00 650.00 648.00 646.00 645.00 643.00 642.00 639.00 636.00 632.00 629.00 626.00 626.00 627.00 631.00 637.00 643.00 650.00 657.00 662.00 666.00 669.00 671.00 672.00 673.00 674.00 676.00 680.00 683.00 688.00 693.00 697.00 702.00 705.00 709.00 713.00 718.00 722.00 727.00 731.00 735.00 738.00 741.00 743.00 745.00 746.00 747.00 749.00 750.00 752.00 753.00 754.00 756.00 757.00 758.00 758.00 758.00 757.00 757.00 756.00 756.00 756.00 756.00 755.00 755.00 755.00 755.00 755.00 755.00 754.00 752.00 748.00 743.00 738.00 731.00 723.00 714.00 705.00 696.00 686.00 677.00 668.00 662.00 656.00 652.00 650.00 648.00 648.00 648.00 648.00 646.00 644.00 641.00 638.00 634.00 631.00 630.00 629.00 630.00 632.00 634.00 636.00 639.00 641.00 642.00 642.00 640.00 637.00 633.00 630.00 628.00 626.00 624.00 622.00 618.00 614.00 608.00 601.00 594.00 588.00 581.00 575.00 568.00 561.00 553.00 545.00 537.00 530.00 523.00 516.00 510.00 505.00 500.00 494.00 486.00 478.00 468.00 459.00 449.00 439.00 429.00 417.00 404.00 391.00 377.00 364.00 352.00 343.00 335.00 329.00 323.00 314.00 302.00 290.00 278.00 265.00 253.00 241.00 230.00 220.00 212.00 206.00 200.00 197.00 194.00 193.00 193.00 194.00 195.00 196.00 197.00 197.00 198.00 198.00 196.00 194.00 188.00 181.00 171.00 162.00 152.00 143.00 135.00 127.00 119.00 112.00 104.00 96.00 88.00 80.00 73.00 67.00 63.00 62.00 63.00 66.00 72.00 79.00 86.00 93.00 101.00 110.00 120.00 128.00 134.00 137.00 140.00 142.00 142.00 142.00 141.00 140.00 139.00 138.00 138.00 137.00 134.00 131.00 127.00 122.00 118.00 114.00 110.00 103.00 93.00 80.00 64.00 47.00 31.00 18.00 9.00 4.00 1.00 0.00 0.00 0.00 0.00 0.00 0.00 0.00 0.00 0.00 0.00 0.00 0.00 0.00 0.00 0.00 0.00 0.00 0.00 0.00 0.00 0.00 0.00 0.00 0.00 0.00 0.00 0.00 0.00 0.00 0.00 0.00 0.00 0.00 0.00 0.00 0.00 0.00 0.00 0.00 0.00 0.00 0.00 0.00 0.00 0.00 0.00 0.00 0.00 0.00 0.00 0.00 0.00 0.00 0.00 0.00 0.00 0.00 0.00 0.00 0.00 0.00 0.00 0.00 0.00 0.00
809.00 802.00 793.00 785.00 778.00 774.00 771.00 769.00 768.00 768.00 768.00 767.00 765.00 763.00 760.00 757.00 754.00 752.00 749.00 747.00 746.00 744.00 742.00 740.00 736.00 731.00 725.00 718.00 710.00 702.00 695.00 688.00 682.00 679.00 679.00 681.00 686.00 693.00 699.00 706.00 713.00 720.00 728.00 735.00 740.00 744.00 747.00 748.00 748.00 747.00 745.00 743.00 741.00 739.00 737.00 735.00 733.00 731.00 728.00 725.00 721.00 716.00 711.00 706.00 702.00 697.00 693.00 688.00 684.00 679.00 675.00 671.00 668.00 667.00 668.00 672.00 679.00 685.00 692.00 700.00 707.00 711.00 712.00 709.00 703.00 694.00 682.00 669.00 656.00 646.00 641.00 637.00 634.00 632.00 633.00 641.00 654.00 667.00 680.00 690.00 698.00 703.00 703.00 701.00 695.00 686.00 677.00 672.00 665.00 655.00 646.00 639.00 636.00 637.00 640.00 644.00 649.00 655.00 661.00 668.00 676.00 685.00 696.00 706.00 717.00 727.00 736.00 743.00 749.00 751.00 750.00 746.00 739.00 730.00 721.00 713.00 706.00 700.00 696.00 693.00 691.00 689.00 688.00 687.00 687.00 686.00 686.00 686.00 688.00 690.00 694.00 701.00 708.00 716.00 723.00 728.00 731.00 732.00 732.00 730.00 728.00 726.00 724.00 721.00 718.00 715.00 712.00 709.00 707.00 705.00 702.00 701.00 699.00 697.00 695.00 693.00 691.00 688.00 684.00 681.00 678.00 676.00 673.00 671.00 669.00 666.00 663.00 660.00 658.00 656.00 654.00 653.00 652.00 651.00 649.00 645.00 641.00 636.00 632.00 629.00 628.00 629.00 632.00 638.00 645.00 652.00 659.00 664.00 668.00 672.00 674.00 676.00 677.00 679.00 682.00 685.00 688.00 692.00 697.00 701.00 705.00 710.00 714.00 718.00 722.00 726.00 730.00 734.00 738.00 741.00 743.00 745.00 746.00 748.00 749.00 750.00 752.00 753.00 754.00 756.00 757.00 759.00 759.00 760.00 760.00 759.00 758.00 757.00 756.00 756.00 755.00 755.00 755.00 755.00 755.00 755.00 755.00 754.00 751.00 748.00 743.00 737.00 730.00 722.00 713.00 703.00 693.00 681.00 670.00 661.00 653.00 646.00 641.00 639.00 637.00 637.00 637.00 636.00 635.00 633.00 630.00 627.00 624.00 621.00 620.00 619.00 619.00 621.00 622.00 624.00 626.00 627.00 627.00 627.00 625.00 623.00 621.00 619.00 617.00 616.00 615.00 614.00 611.00 607.00 603.00 598.00 593.00 587.00 581.00 574.00 566.00 557.00 547.00 537.00 528.00 520.00 514.00 508.00 504.00 500.00 495.00 489.00 480.00 470.00 459.00 448.00 437.00 427.00 417.00 406.00 394.00 380.00 366.00 353.00 342.00 332.00 325.00 318.00 313.00 305.00 294.00 282.00 269.00 256.00 243.00 231.00 220.00 210.00 201.00 194.00 187.00 183.00 179.00 177.00 176.00 176.00 177.00 177.00 178.00 179.00 180.00 180.00 180.00 177.00 173.00 166.00 158.00 149.00 141.00 133.00 125.00 118.00 110.00 103.00 95.00 88.00 82.00 76.00 72.00 69.00 68.00 69.00 73.00 78.00 85.00 93.00 100.00 108.00 116.00 125.00 134.00 140.00 144.00 147.00 149.00 150.00 150.00 149.00 148.00 147.00 147.00 147.00 146.00 145.00 143.00 139.00 135.00 130.00 125.00 120.00 114.00 105.00 91.00 75.00 57.00 39.00 24.00 12.00 5.00 2.00 0.00 0.00 0.00 0.00 0.00 0.00 0.00 0.00 0.00 0.00 0.00 0.00 0.00 0.00 0.00 0.00 0.00 0.00 0.00 0.00 0.00 0.00 0.00 0.00 0.00 0.00 0.00 0.00 0.00 0.00 0.00 0.00 0.00 0.00 0.00 0.00 0.00 0.00 0.00 0.00 0.00 0.00 0.00 0.00 0.00 0.00 0.00 0.00 0.00 0.00 0.00 0.00 0.00 0.00 0.00 0.00 0.00 0.00 0.00 0.00 0.00 0.00 0.00 0.00 0.00 0.00
803.00 796.00 787.00 779.00 772.00 768.00 766.00 765.00 765.00 765.00 764.00 762.00 760.00 756.00 752.00 748.00 745.00 742.00 740.00 738.00 737.00 736.00 735.00 733.00 729.00 725.00 719.00 713.00 707.00 699.00 692.00 686.00 678.00 672.00 669.00 670.00 675.00 683.00 689.00 695.00 701.00 708.00 714.00 720.00 726.00 731.00 734.00 736.00 737.00 737.00 736.00 735.00 733.00 732.00 730.00 728.00 725.00 723.00 720.00 716.00 711.00 706.00 700.00 694.00 689.00 685.00 682.00 678.00 673.00 669.00 665.00 662.00 661.00 661.00 664.00 669.00 677.00 684.00 691.00 699.00 705.00 710.00 711.00 709.00 704.00 696.00 686.00 674.00 661.00 649.00 641.00 635.00 630.00 626.00 624.00 629.00 640.00 652.00 664.00 674.00 681.00 686.00 689.00 688.00 683.00 676.00 668.00 660.00 654.00 647.00 638.00 630.00 626.00 626.00 629.00 633.00 638.00 644.00 650.00 656.00 664.00 672.00 682.00 693.00 704.00 715.00 726.00 735.00 743.00 747.00 747.00 745.00 739.00 731.00 723.00 715.00 707.00 700.00 695.00 690.00 687.00 683.00 681.00 678.00 676.00 675.00 674.00 674.00 675.00 678.00 682.00 689.00 697.00 706.00 714.00 721.00 726.00 729.00 730.00 730.00 728.00 726.00 723.00 720.00 717.00 713.00 709.00 706.00 704.00 701.00 699.00 697.00 695.00 693.00 691.00 688.00 686.00 683.00 680.00 678.00 676.00 674.00 672.00 671.00 669.00 667.00 665.00 663.00 662.00 661.00 660.00 659.00 658.00 657.00 655.00 651.00 646.00 640.00 635.00 631.00 630.00 632.00 636.00 641.00 647.00 654.00 661.00 667.00 671.00 675.00 678.00 680.00 682.00 684.00 686.00 689.00 692.00 695.00 699.00 703.00 708.00 712.00 717.00 721.00 725.00 729.00 733.00 736.00 740.00 742.00 744.00 746.00 748.00 750.00 751.00 752.00 754.00 755.00 757.00 758.00 760.00 761.00 762.00 763.00 763.00 762.00 761.00 759.00 758.00 756.00 755.00 755.00 754.00 754.00 754.00 754.00 753.00 752.00 750.00 747.00 743.00 738.00 731.00 722.00 712.00 702.00 689.00 676.00 664.00 653.00 644.00 637.00 631.00 628.00 627.00 626.00 625.00 624.00 623.00 621.00 619.00 616.00 614.00 612.00 611.00 610.00 610.00 611.00 611.00 612.00 612.00 612.00 612.00 611.00 609.00 608.00 606.00 605.00 605.00 605.00 605.00 604.00 602.00 600.00 596.00 593.00 588.00 584.00 578.00 571.00 562.00 551.00 540.00 528.00 518.00 510.00 504.00 500.00 496.00 493.00 488.00 481.00 472.00 461.00 449.00 437.00 426.00 416.00 407.00 397.00 386.00 374.00 361.00 348.00 336.00 327.00 319.00 312.00 306.00 299.00 289.00 276.00 263.00 249.00 236.00 224.00 212.00 202.00 193.00 185.00 179.00 173.00 169.00 165.00 163.00 161.00 159.00 159.00 159.00 159.00 159.00 160.00 159.00 158.00 154.00 149.00 142.00 135.00 127.00 120.00 114.00 107.00 101.00 95.00 88.00 83.00 79.00 76.00 75.00 75.00 77.00 81.00 86.00 93.00 100.00 108.00 116.00 123.00 131.00 139.00 146.00 150.00 153.00 155.00 156.00 156.00 156.00 155.00 155.00 154.00 154.00 153.00 153.00 151.00 149.00 145.00 140.00 135.00 129.00 123.00 114.00 102.00 86.00 68.00 49.00 31.00 17.00 7.00 2.00 0.00 0.00 0.00 0.00 0.00 0.00 0.00 0.00 0.00 0.00 0.00 0.00 0.00 0.00 0.00 0.00 0.00 0.00 0.00 0.00 0.00 0.00 0.00 0.00 0.00 0.00 0.00 0.00 0.00 0.00 0.00 0.00 0.00 0.00 0.00 0.00 0.00 0.00 0.00 0.00 0.00 0.00 0.00 0.00 0.00 0.00 0.00 0.00 0.00 0.00 0.00 0.00 0.00 0.00 0.00 0.00 0.00 0.00 0.00 0.00 0.00 0.00 0.00 0.00 0.00 0.00 0.00
797.00 789.00 782.00 774.00 769.00 765.00 763.00 762.00 762.00 762.00 760.00 758.00 754.00 750.00 745.00 741.00 737.00 734.00 732.00 730.00 729.00 728.00 727.00 725.00 722.00 718.00 714.00 709.00 704.00 697.00 688.00 681.00 672.00 664.00 658.00 657.00 662.00 671.00 677.00 682.00 687.00 692.00 698.00 704.00 711.00 717.00 722.00 725.00 727.00 728.00 728.00 727.00 726.00 725.00 723.00 720.00 716.00 713.00 708.00 704.00 698.00 693.00 687.00 681.00 675.00 671.00 668.00 666.00 662.00 660.00 658.00 655.00 654.00 656.00 659.00 665.00 673.00 681.00 689.00 697.00 702.00 706.00 708.00 707.00 704.00 699.00 690.00 680.00 667.00 653.00 642.00 633.00 626.00 619.00 616.00 619.00 627.00 637.00 648.00 658.00 665.00 670.00 675.00 674.00 670.00 663.00 655.00 646.00 639.00 632.00 625.00 618.00 614.00 614.00 617.00 622.00 627.00 632.00 638.00 644.00 651.00 658.00 668.00 678.00 690.00 703.00 715.00 726.00 735.00 741.00 743.00 742.00 739.00 733.00 726.00 719.00 712.00 705.00 698.00 693.00 688.00 683.00 679.00 674.00 671.00 668.00 666.00 665.00 666.00 668.00 672.00 678.00 687.00 696.00 705.00 713.00 720.00 723.00 726.00 727.00 727.00 725.00 722.00 718.00 715.00 712.00 708.00 705.00 703.00 701.00 699.00 697.00 695.00 693.00 691.00 688.00 685.00 683.00 680.00 678.00 676.00 675.00 674.00 673.00 671.00 670.00 668.00 666.00 665.00 664.00 664.00 663.00 663.00 662.00 660.00 656.00 651.00 645.00 639.00 636.00 635.00 639.00 644.00 648.00 652.00 657.00 663.00 669.00 674.00 678.00 681.00 684.00 686.00 688.00 690.00 692.00 694.00 697.00 701.00 706.00 710.00 715.00 720.00 724.00 728.00 732.00 735.00 738.00 741.00 744.00 746.00 748.00 750.00 752.00 753.00 755.00 757.00 759.00 760.00 762.00 763.00 765.00 766.00 767.00 766.00 765.00 764.00 762.00 760.00 758.00 756.00 755.00 754.00 754.00 753.00 753.00 752.00 751.00 749.00 747.00 744.00 738.00 731.00 722.00 712.00 700.00 686.00 672.00 659.00 647.00 637.00 629.00 623.00 619.00 616.00 614.00 613.00 611.00 610.00 608.00 607.00 605.00 603.00 602.00 601.00 601.00 600.00 600.00 600.00 599.00 598.00 597.00 596.00 595.00 594.00 593.00 592.00 591.00 592.00 592.00 593.00 593.00 592.00 590.00 588.00 584.00 581.00 577.00 571.00 564.00 555.00 544.00 531.00 519.00 508.00 500.00 494.00 491.00 488.00 485.00 480.00 472.00 463.00 451.00 439.00 427.00 416.00 407.00 399.00 390.00 381.00 370.00 359.00 347.00 335.00 326.00 317.00 309.00 303.00 295.00 285.00 272.00 258.00 245.00 232.00 219.00 207.00 197.00 189.00 182.00 175.00 169.00 164.00 158.00 154.00 149.00 145.00 142.00 141.00 139.00 139.00 139.00 139.00 137.00 135.00 131.00 126.00 120.00 114.00 109.00 103.00 98.00 93.00 89.00 85.00 83.00 82.00 82.00 83.00 86.00 90.00 96.00 103.00 110.00 117.00 124.00 131.00 137.00 144.00 151.00 156.00 159.00 161.00 162.00 162.00 162.00 161.00 161.00 160.00 160.00 159.00 158.00 157.00 155.00 152.00 148.00 143.00 137.00 130.00 121.00 110.00 95.00 77.00 59.00 41.00 24.00 11.00 4.00 1.00 0.00 0.00 0.00 0.00 0.00 0.00 0.00 0.00 0.00 0.00 0.00 0.00 0.00 0.00 0.00 0.00 0.00 0.00 0.00 0.00 0.00 0.00 0.00 0.00 0.00 0.00 0.00 0.00 0.00 0.00 0.00 0.00 0.00 0.00 0.00 0.00 0.00 0.00 0.00 0.00 0.00 0.00 0.00 0.00 0.00 0.00 0.00 0.00 0.00 0.00 0.00 0.00 0.00 0.00 0.00 0.00 0.00 0.00 0.00 0.00 0.00 0.00 0.00 0.00 0.00 0.00 0.00
789.00 784.00 777.00 772.00 767.00 764.00 762.00 760.00 760.00 758.00 756.00 753.00 749.00 744.00 739.00 735.00 731.00 728.00 726.00 725.00 723.00 722.00 720.00 718.00 716.00 713.00 710.00 705.00 699.00 691.00 683.00 674.00 664.00 653.00 647.00 645.00 648.00 654.00 661.00 666.00 671.00 677.00 683.00 689.00 696.00 703.00 709.00 714.00 718.00 719.00 720.00 720.00 719.00 718.00 715.00 711.00 706.00 700.00 695.00 689.00 683.00 678.00 672.00 667.00 662.00 658.00 655.00 653.00 651.00 649.00 648.00 648.00 649.00 651.00 656.00 662.00 669.00 677.00 685.00 692.00 697.00 700.00 702.00 703.00 702.00 699.00 694.00 687.00 677.00 663.00 649.00 636.00 625.00 616.00 612.00 612.00 617.00 626.00 636.00 644.00 651.00 656.00 659.00 659.00 656.00 650.00 643.00 635.00 627.00 619.00 612.00 606.00 603.00 604.00 606.00 610.00 615.00 621.00 626.00 632.00 638.00 645.00 654.00 665.00 678.00 692.00 705.00 718.00 728.00 735.00 739.00 740.00 738.00 735.00 731.00 725.00 718.00 711.00 704.00 697.00 691.00 686.00 680.00 675.00 670.00 665.00 661.00 658.00 658.00 660.00 663.00 668.00 676.00 686.00 695.00 704.00 711.00 716.00 720.00 722.00 724.00 724.00 721.00 717.00 714.00 711.00 709.00 706.00 704.00 702.00 701.00 699.00 697.00 695.00 693.00 690.00 687.00 685.00 682.00 680.00 678.00 677.00 676.00 675.00 674.00 672.00 671.00 669.00 667.00 667.00 666.00 666.00 666.00 665.00 664.00 660.00 655.00 649.00 645.00 643.00 643.00 645.00 650.00 654.00 657.00 660.00 666.00 672.00 677.00 681.00 684.00 687.00 689.00 691.00 693.00 695.00 697.00 700.00 704.00 709.00 713.00 718.00 723.00 727.00 731.00 734.00 737.00 740.00 742.00 745.00 748.00 750.00 752.00 754.00 757.00 759.00 761.00 763.00 764.00 766.00 768.00 769.00 770.00 771.00 770.00 769.00 768.00 765.00 763.00 761.00 758.00 756.00 755.00 754.00 753.00 752.00 751.00 749.00 748.00 746.00 743.00 738.00 731.00 722.00 710.00 697.00 682.00 667.00 654.00 642.00 631.00 622.00 615.00 609.00 605.00 602.00 599.00 597.00 596.00 594.00 593.00 592.00 591.00 590.00 590.00 589.00 589.00 588.00 587.00 585.00 584.00 582.00 581.00 581.00 580.00 579.00 579.00 578.00 578.00 579.00 580.00 581.00 580.00 579.00 577.00 573.00 570.00 566.00 561.00 555.00 546.00 534.00 522.00 510.00 499.00 491.00 485.00 482.00 480.00 476.00 471.00 463.00 454.00 442.00 430.00 419.00 409.00 401.00 393.00 386.00 379.00 370.00 359.00 348.00 337.00 326.00 317.00 308.00 301.00 293.00 282.00 269.00 255.00 242.00 229.00 217.00 205.00 197.00 189.00 183.00 177.00 171.00 165.00 158.00 151.00 145.00 138.00 133.00 129.00 126.00 125.00 124.00 123.00 122.00 120.00 117.00 113.00 108.00 104.00 100.00 96.00 93.00 90.00 88.00 86.00 87.00 89.00 92.00 96.00 101.00 108.00 114.00 121.00 128.00 135.00 141.00 146.00 151.00 157.00 162.00 165.00 167.00 168.00 168.00 168.00 167.00 166.00 165.00 164.00 163.00 162.00 161.00 159.00 157.00 153.00 149.00 143.00 135.00 126.00 115.00 102.00 85.00 67.00 49.00 32.00 18.00 7.00 2.00 0.00 0.00 0.00 0.00 0.00 0.00 0.00 0.00 0.00 0.00 0.00 0.00 0.00 0.00 0.00 0.00 0.00 0.00 0.00 0.00 0.00 0.00 0.00 0.00 0.00 0.00 0.00 0.00 0.00 0.00 0.00 0.00 0.00 0.00 0.00 0.00 0.00 0.00 0.00 0.00 0.00 0.00 0.00 0.00 0.00 0.00 0.00 0.00 0.00 0.00 0.00 0.00 0.00 0.00 0.00 0.00 0.00 0.00 0.00 0.00 0.00 0.00 0.00 0.00 0.00 0.00 0.00 0.00
782.00 779.00 774.00 770.00 766.00 763.00 761.00 758.00 756.00 754.00 751.00 748.00 743.00 739.00 735.00 731.00 728.00 725.00 723.00 721.00 719.00 717.00 715.00 713.00 711.00 708.00 704.00 699.00 692.00 685.00 678.00 669.00 659.00 648.00 640.00 635.00 633.00 635.00 640.00 647.00 655.00 661.00 667.00 674.00 682.00 689.00 696.00 702.00 707.00 711.00 713.00 713.00 713.00 711.00 707.00 702.00 695.00 688.00 681.00 675.00 669.00 663.00 659.00 654.00 650.00 646.00 643.00 641.00 640.00 638.00 638.00 639.00 642.00 646.00 652.00 659.00 666.00 673.00 680.00 686.00 690.00 692.00 695.00 697.00 699.00 700.00 698.00 694.00 687.00 676.00 661.00 645.00 631.00 621.00 614.00 612.00 613.00 618.00 625.00 631.00 637.00 641.00 644.00 645.00 644.00 641.00 636.00 629.00 621.00 613.00 605.00 599.00 596.00 594.00 596.00 600.00 605.00 610.00 615.00 621.00 627.00 635.00 644.00 655.00 669.00 683.00 698.00 711.00 722.00 730.00 735.00 737.00 738.00 737.00 734.00 729.00 723.00 716.00 709.00 702.00 695.00 689.00 683.00 677.00 670.00 664.00 658.00 654.00 652.00 652.00 655.00 659.00 666.00 674.00 683.00 692.00 701.00 707.00 712.00 716.00 719.00 721.00 720.00 717.00 714.00 711.00 709.00 707.00 706.00 704.00 703.00 702.00 701.00 699.00 697.00 694.00 691.00 688.00 686.00 683.00 682.00 681.00 680.00 679.00 677.00 675.00 674.00 672.00 670.00 670.00 669.00 669.00 669.00 669.00 667.00 664.00 658.00 653.00 652.00 650.00 649.00 650.00 653.00 658.00 661.00 663.00 668.00 674.00 679.00 683.00 687.00 690.00 692.00 694.00 696.00 698.00 701.00 704.00 708.00 713.00 717.00 722.00 726.00 730.00 733.00 736.00 739.00 742.00 744.00 747.00 750.00 752.00 755.00 758.00 761.00 763.00 765.00 768.00 770.00 772.00 773.00 774.00 775.00 775.00 775.00 774.00 772.00 769.00 767.00 764.00 761.00 759.00 756.00 754.00 752.00 751.00 749.00 747.00 746.00 744.00 741.00 737.00 730.00 720.00 708.00 693.00 678.00 663.00 649.00 636.00 625.00 615.00 606.00 599.00 594.00 589.00 585.00 583.00 581.00 579.00 578.00 578.00 578.00 578.00 578.00 577.00 576.00 575.00 573.00 572.00 571.00 570.00 569.00 569.00 569.00 568.00 567.00 566.00 566.00 566.00 567.00 568.00 567.00 566.00 563.00 560.00 556.00 552.00 548.00 542.00 535.00 524.00 513.00 501.00 491.00 484.00 478.00 475.00 472.00 469.00 463.00 455.00 445.00 434.00 423.00 413.00 403.00 396.00 390.00 384.00 377.00 369.00 360.00 349.00 339.00 328.00 318.00 308.00 300.00 291.00 279.00 266.00 252.00 239.00 226.00 215.00 206.00 199.00 194.00 189.00 184.00 179.00 173.00 166.00 158.00 150.00 142.00 134.00 129.00 125.00 122.00 119.00 117.00 115.00 113.00 109.00 106.00 103.00 99.00 96.00 94.00 92.00 92.00 92.00 93.00 96.00 100.00 106.00 113.00 120.00 127.00 134.00 141.00 148.00 154.00 158.00 162.00 166.00 170.00 173.00 174.00 175.00 175.00 174.00 173.00 171.00 169.00 167.00 166.00 164.00 162.00 161.00 159.00 156.00 152.00 147.00 140.00 131.00 120.00 107.00 91.00 74.00 57.00 40.00 25.00 13.00 5.00 1.00 0.00 0.00 0.00 0.00 0.00 0.00 0.00 0.00 0.00 0.00 0.00 0.00 0.00 0.00 0.00 0.00 0.00 0.00 0.00 0.00 0.00 0.00 0.00 0.00 0.00 0.00 0.00 0.00 0.00 0.00 0.00 0.00 0.00 0.00 0.00 0.00 0.00 0.00 0.00 0.00 0.00 0.00 0.00 0.00 0.00 0.00 0.00 0.00 0.00 0.00 0.00 0.00 0.00 0.00 0.00 0.00 0.00 0.00 0.00 0.00 0.00 0.00 0.00 0.00 0.00 0.00 0.00 0.00
776.00 774.00 771.00 768.00 765.00 762.00 758.00 755.00 752.00 749.00 745.00 742.00 739.00 735.00 732.00 729.00 726.00 724.00 721.00 719.00 718.00 715.00 713.00 710.00 706.00 702.00 697.00 692.00 686.00 680.00 673.00 666.00 660.00 651.00 638.00 628.00 624.00 623.00 626.00 633.00 640.00 645.00 650.00 659.00 667.00 675.00 683.00 690.00 697.00 702.00 705.00 707.00 707.00 705.00 701.00 694.00 686.00 678.00 670.00 663.00 657.00 652.00 648.00 643.00 639.00 636.00 633.00 631.00 630.00 629.00 629.00 630.00 633.00 638.00 645.00 653.00 661.00 668.00 674.00 679.00 682.00 684.00 687.00 691.00 696.00 699.00 701.00 699.00 694.00 684.00 670.00 654.00 638.00 627.00 618.00 612.00 611.00 612.00 615.00 619.00 624.00 628.00 631.00 634.00 635.00 634.00 632.00 627.00 620.00 612.00 604.00 596.00 591.00 588.00 588.00 591.00 595.00 600.00 606.00 612.00 619.00 627.00 637.00 649.00 663.00 678.00 693.00 706.00 718.00 726.00 732.00 735.00 737.00 737.00 736.00 732.00 726.00 720.00 712.00 705.00 698.00 692.00 686.00 680.00 673.00 665.00 658.00 652.00 648.00 646.00 647.00 650.00 655.00 662.00 670.00 679.00 688.00 696.00 702.00 708.00 712.00 716.00 717.00 716.00 714.00 711.00 710.00 708.00 707.00 706.00 705.00 705.00 704.00 703.00 701.00 698.00 695.00 693.00 690.00 688.00 686.00 685.00 684.00 682.00 681.00 679.00 677.00 676.00 674.00 673.00 673.00 673.00 673.00 673.00 671.00 668.00 662.00 658.00 656.00 655.00 654.00 655.00 657.00 661.00 663.00 665.00 670.00 676.00 681.00 686.00 690.00 693.00 695.00 698.00 700.00 702.00 705.00 708.00 712.00 717.00 721.00 725.00 729.00 732.00 735.00 738.00 741.00 744.00 747.00 750.00 753.00 756.00 759.00 762.00 766.00 769.00 771.00 774.00 777.00 778.00 780.00 781.00 781.00 781.00 780.00 778.00 776.00 774.00 771.00 768.00 765.00 762.00 758.00 755.00 752.00 749.00 747.00 745.00 743.00 741.00 738.00 734.00 726.00 716.00 703.00 687.00 672.00 657.00 643.00 630.00 619.00 608.00 599.00 590.00 583.00 577.00 573.00 569.00 566.00 565.00 564.00 564.00 564.00 565.00 565.00 564.00 563.00 562.00 561.00 560.00 559.00 559.00 559.00 559.00 558.00 558.00 556.00 555.00 554.00 554.00 554.00 554.00 553.00 551.00 548.00 544.00 541.00 538.00 534.00 530.00 524.00 515.00 505.00 495.00 485.00 478.00 473.00 469.00 466.00 462.00 456.00 448.00 438.00 427.00 417.00 407.00 399.00 392.00 386.00 381.00 375.00 368.00 359.00 349.00 339.00 328.00 317.00 307.00 298.00 288.00 275.00 261.00 248.00 235.00 224.00 215.00 208.00 204.00 200.00 198.00 195.00 192.00 187.00 180.00 172.00 164.00 155.00 147.00 140.00 135.00 130.00 126.00 122.00 119.00 115.00 111.00 107.00 104.00 101.00 99.00 98.00 98.00 99.00 101.00 105.00 110.00 116.00 123.00 131.00 139.00 147.00 154.00 161.00 167.00 172.00 176.00 179.00 182.00 183.00 184.00 183.00 182.00 181.00 179.00 177.00 174.00 172.00 169.00 166.00 164.00 161.00 159.00 156.00 152.00 148.00 142.00 133.00 123.00 111.00 96.00 80.00 63.00 47.00 32.00 20.00 10.00 5.00 2.00 1.00 0.00 0.00 0.00 0.00 0.00 0.00 0.00 0.00 0.00 0.00 0.00 0.00 0.00 0.00 0.00 0.00 0.00 0.00 0.00 0.00 0.00 0.00 0.00 0.00 0.00 0.00 0.00 0.00 0.00 0.00 0.00 0.00 0.00 0.00 0.00 0.00 0.00 0.00 0.00 0.00 0.00 0.00 0.00 0.00 0.00 0.00 0.00 0.00 0.00 0.00 0.00 0.00 0.00 0.00 0.00 0.00 0.00 0.00 0.00 0.00 0.00 0.00 0.00 0.00 0.00 0.00 0.00
771.00 770.00 767.00 765.00 762.00 758.00 753.00 749.00 745.00 741.00 738.00 736.00 734.00 732.00 730.00 727.00 725.00 723.00 721.00 720.00 718.00 715.00 710.00 705.00 700.00 695.00 691.00 686.00 680.00 674.00 668.00 662.00 659.00 654.00 643.00 633.00 629.00 626.00 627.00 631.00 634.00 633.00 635.00 643.00 652.00 661.00 669.00 678.00 686.00 693.00 699.00 702.00 703.00 702.00 697.00 690.00 681.00 672.00 663.00 655.00 649.00 644.00 639.00 634.00 630.00 626.00 623.00 621.00 620.00 619.00 620.00 622.00 625.00 630.00 638.00 646.00 654.00 662.00 667.00 671.00 674.00 677.00 681.00 686.00 691.00 697.00 702.00 702.00 698.00 690.00 678.00 663.00 648.00 635.00 624.00 615.00 610.00 608.00 608.00 610.00 612.00 616.00 620.00 624.00 627.00 630.00 630.00 628.00 623.00 615.00 606.00 597.00 589.00 585.00 583.00 585.00 588.00 593.00 598.00 605.00 613.00 622.00 633.00 646.00 660.00 675.00 690.00 703.00 714.00 722.00 728.00 732.00 735.00 736.00 735.00 732.00 727.00 721.00 714.00 707.00 701.00 695.00 689.00 683.00 675.00 667.00 659.00 652.00 646.00 642.00 641.00 642.00 645.00 651.00 657.00 666.00 675.00 684.00 692.00 698.00 704.00 709.00 712.00 714.00 712.00 710.00 708.00 707.00 707.00 706.00 706.00 706.00 706.00 705.00 703.00 701.00 699.00 696.00 694.00 692.00 690.00 689.00 687.00 686.00 685.00 683.00 681.00 679.00 678.00 677.00 677.00 678.00 678.00 678.00 676.00 672.00 667.00 662.00 658.00 657.00 656.00 657.00 659.00 662.00 664.00 668.00 673.00 679.00 683.00 688.00 692.00 696.00 699.00 701.00 703.00 705.00 709.00 712.00 716.00 720.00 724.00 727.00 731.00 734.00 738.00 741.00 744.00 747.00 750.00 753.00 757.00 760.00 764.00 768.00 772.00 776.00 779.00 782.00 784.00 786.00 788.00 788.00 788.00 787.00 785.00 783.00 781.00 779.00 776.00 773.00 769.00 765.00 761.00 756.00 751.00 747.00 743.00 740.00 738.00 736.00 733.00 727.00 719.00 708.00 695.00 679.00 664.00 650.00 637.00 625.00 613.00 603.00 593.00 583.00 575.00 568.00 562.00 558.00 554.00 552.00 551.00 551.00 551.00 552.00 552.00 552.00 552.00 551.00 550.00 550.00 549.00 549.00 549.00 548.00 548.00 546.00 545.00 543.00 542.00 541.00 541.00 540.00 538.00 536.00 533.00 529.00 526.00 524.00 521.00 519.00 514.00 507.00 499.00 490.00 481.00 474.00 468.00 464.00 460.00 455.00 448.00 440.00 431.00 421.00 411.00 402.00 394.00 388.00 382.00 376.00 370.00 363.00 355.00 345.00 335.00 324.00 313.00 302.00 292.00 282.00 269.00 255.00 242.00 231.00 222.00 215.00 211.00 209.00 208.00 207.00 207.00 205.00 202.00 196.00 190.00 183.00 175.00 167.00 160.00 153.00 147.00 141.00 135.00 129.00 124.00 119.00 115.00 112.00 110.00 108.00 108.00 109.00 111.00 115.00 120.00 126.00 133.00 141.00 150.00 158.00 166.00 172.00 178.00 184.00 188.00 192.00 194.00 195.00 195.00 194.00 192.00 189.00 186.00 183.00 180.00 177.00 173.00 170.00 166.00 163.00 160.00 156.00 152.00 147.00 142.00 134.00 125.00 113.00 100.00 85.00 68.00 53.00 38.00 26.00 16.00 9.00 5.00 2.00 1.00 0.00 0.00 0.00 0.00 0.00 0.00 0.00 0.00 0.00 0.00 0.00 0.00 0.00 0.00 0.00 0.00 0.00 0.00 0.00 0.00 0.00 0.00 0.00 0.00 0.00 0.00 0.00 0.00 0.00 0.00 0.00 0.00 0.00 0.00 0.00 0.00 0.00 0.00 0.00 0.00 0.00 0.00 0.00 0.00 0.00 0.00 0.00 0.00 0.00 0.00 0.00 0.00 0.00 0.00 0.00 0.00 0.00 0.00 0.00 0.00 0.00 0.00 0.00 0.00 0.00 0.00 0.00
